1.440367253399390535e+01 1.800000000000000000e+02 5.852852354775056609e-01
1.400333153168577383e+01 1.800000000000000000e+02 5.649226380974521344e-01
1.360300004348620284e+01 1.800000000000000000e+02 5.437732016770807641e-01
1.320266934812899073e+01 1.800000000000000000e+02 5.022081747908556659e-01
1.280233785992941975e+01 1.800000000000000000e+02 5.191325164073495868e-01
1.240200716457220764e+01 1.800000000000000000e+02 5.193635697433748311e-01
1.200166616226407612e+01 1.800000000000000000e+02 5.368578378307125032e-01
1.160133467406448560e+01 1.800000000000000000e+02 5.197172823153579646e-01
1.120100318586491461e+01 1.800000000000000000e+02 5.006994385529325298e-01
1.080067249050770428e+01 1.800000000000000000e+02 5.263457745941657606e-01
1.040034100230813330e+01 1.800000000000000000e+02 5.259628789712884611e-01
1.158568475834204392e+01 1.195755509350593968e+02 5.452273341931817008e-01
1.158568475834204392e+01 1.204244478166129966e+02 5.140485789385457194e-01
1.169189392345577794e+01 1.220694013256472346e+02 5.487608155406700217e-01
1.198203855632531578e+01 1.226524223262398863e+02 5.636197557799325075e-01
1.237852713751306588e+01 1.228659841676097955e+02 5.615901958354169166e-01
1.277502602565172118e+01 1.226524223262398863e+02 5.480403326609817327e-01
1.306517065852125725e+01 1.220694013256472346e+02 5.279478829647162863e-01
1.317136951668408784e+01 1.204244478166129824e+02 5.043274507901027714e-01
1.317136951668408784e+01 1.195755509350593968e+02 5.317927744036761162e-01
1.306517065852125725e+01 1.179305990429559614e+02 6.045119461368028135e-01
1.277502602565172118e+01 1.173475755890361256e+02 6.008968156843337294e-01
1.237852713751306588e+01 1.171340165429103450e+02 6.184934980704923646e-01
1.198203855632531578e+01 1.173475755890361256e+02 6.212619798037731789e-01
1.169189392345577794e+01 1.179305990429559614e+02 6.093752019275193721e-01
1.800353688587048850e+01 8.999999999999998579e+01 9.434569459852584217e-01
1.840074219656900567e+01 8.999999999999998579e+01 9.630760319791302759e-01
1.879794750726751573e+01 8.999999999999998579e+01 9.858092924460639672e-01
1.919515202512365448e+01 8.999999999999998579e+01 1.007717822903702487e+00
1.959235733582217165e+01 8.999999999999998579e+01 1.025773896015449660e+00
1.720600087981477699e+01 2.700000000000000000e+02 5.833278832179875639e-01
1.680566939161519002e+01 2.700000000000000000e+02 5.621312873681956201e-01
1.640533790341562081e+01 2.700000000000000000e+02 5.658834994207760927e-01
1.600500720805840871e+01 2.700000000000000000e+02 5.744768020585480084e-01
1.560466620575027719e+01 2.700000000000000000e+02 5.801786932438564026e-01
1.520433471755070798e+01 2.700000000000000000e+02 5.807527138844972292e-01
1.480400402219349587e+01 2.700000000000000000e+02 6.017761222844193458e-01
1.440367253399390535e+01 2.700000000000000000e+02 5.973717471732054030e-01
1.400333153168577383e+01 2.700000000000000000e+02 5.971509692133580849e-01
1.360300004348620284e+01 2.700000000000000000e+02 5.960384221011487682e-01
1.320266934812899073e+01 2.700000000000000000e+02 5.854237793536081202e-01
1.280233785992941975e+01 2.700000000000000000e+02 5.710472971705491396e-01
1.240200716457220764e+01 2.700000000000000000e+02 5.441473391641067359e-01
1.200166616226407612e+01 2.700000000000000000e+02 5.252377500381836262e-01
1.160133467406448560e+01 2.700000000000000000e+02 5.733530821927984578e-01
1.120100318586491461e+01 2.700000000000000000e+02 5.591808938235847126e-01
1.080067249050770428e+01 2.700000000000000000e+02 5.463661846759235718e-01
1.040034100230813330e+01 2.700000000000000000e+02 5.557719441622686052e-01
1.000000000000000000e+01 2.692035398195886273e+02 5.000000000000000000e-01
1.000000000000000000e+01 2.684070796431016674e+02 5.000000000000000000e-01
1.000000000000000000e+01 2.676106194751790781e+02 5.000000000000000000e-01
1.000000000000000000e+01 2.668141593798076201e+02 5.000000000000000000e-01
1.000000000000000000e+01 2.660176989723786960e+02 5.000000000000000000e-01
1.000000000000000000e+01 2.652212388943971177e+02 5.000000000000000000e-01
1.000000000000000000e+01 2.644247786193323577e+02 5.000000000000000000e-01
1.000000000000000000e+01 2.636283187293843753e+02 5.000000000000000000e-01
1.000000000000000000e+01 2.628318586100223797e+02 5.000000000000000000e-01
1.000000000000000000e+01 2.620353992188210555e+02 5.000000000000000000e-01
1.000000000000000000e+01 2.612389377850477672e+02 5.000000000000000000e-01
1.000000000000000000e+01 2.604424778233687903e+02 5.000000000000000000e-01
1.000000000000000000e+01 2.596460178374074417e+02 5.000000000000000000e-01
1.000000000000000000e+01 2.588495575624512526e+02 5.000000000000000000e-01
1.000000000000000000e+01 2.580530983379813392e+02 5.000000000000000000e-01
1.000000000000000000e+01 2.572566377137416680e+02 5.000000000000000000e-01
1.000000000000000000e+01 2.564601771476702652e+02 5.000000000000000000e-01
1.000000000000000000e+01 2.556637170702582011e+02 5.000000000000000000e-01
1.000000000000000000e+01 2.548672567691085646e+02 5.000000000000000000e-01
1.000000000000000000e+01 2.540707953152218010e+02 5.000000000000000000e-01
1.000000000000000000e+01 2.532743357826379906e+02 5.000000000000000000e-01
1.000000000000000000e+01 2.524778750528269313e+02 5.000000000000000000e-01
1.000000000000000000e+01 2.516814164187097731e+02 5.000000000000000000e-01
1.000000000000000000e+01 2.508849553359679589e+02 5.000000000000000000e-01
1.000000000000000000e+01 2.500884969028692808e+02 5.000000000000000000e-01
1.000000000000000000e+01 2.492920357422066786e+02 5.000000000000000000e-01
1.000000000000000000e+01 2.484955746038096720e+02 5.000000000000000000e-01
1.000000000000000000e+01 2.476991157054704047e+02 5.000000000000000000e-01
1.000000000000000000e+01 2.469026549967339292e+02 5.000000000000000000e-01
1.000000000000000000e+01 2.461061945753463931e+02 5.000000000000000000e-01
1.000000000000000000e+01 2.453097354150016827e+02 5.000000000000000000e-01
1.000000000000000000e+01 2.445132757602295897e+02 5.000000000000000000e-01
1.000000000000000000e+01 2.437168159647070809e+02 5.000000000000000000e-01
1.000000000000000000e+01 2.429203541736176817e+02 5.000000000000000000e-01
1.000000000000000000e+01 2.421238950367728933e+02 5.000000000000000000e-01
1.000000000000000000e+01 2.413274322946253676e+02 5.000000000000000000e-01
1.000000000000000000e+01 2.405309729627819593e+02 5.000000000000000000e-01
1.000000000000000000e+01 2.397345133940177675e+02 5.000000000000000000e-01
1.000000000000000000e+01 2.389380534519567902e+02 5.000000000000000000e-01
1.000000000000000000e+01 2.381415924354594722e+02 5.000000000000000000e-01
1.000000000000000000e+01 2.373451330200339271e+02 5.000000000000000000e-01
1.000000000000000000e+01 2.365486722448804926e+02 5.000000000000000000e-01
1.000000000000000000e+01 2.357522131324427903e+02 5.000000000000000000e-01
1.000000000000000000e+01 2.349557534173832778e+02 5.000000000000000000e-01
1.000000000000000000e+01 2.341592919530772008e+02 5.000000000000000000e-01
1.000000000000000000e+01 2.333628320779596663e+02 5.000000000000000000e-01
1.000000000000000000e+01 2.325663705771988816e+02 5.000000000000000000e-01
1.000000000000000000e+01 2.317699118962098055e+02 5.000000000000000000e-01
1.000000000000000000e+01 2.309734516696036337e+02 5.000000000000000000e-01
1.000000000000000000e+01 2.301769914626933655e+02 5.000000000000000000e-01
1.000000000000000000e+01 2.293805322768739074e+02 5.000000000000000000e-01
1.000000000000000000e+01 2.285840705252784062e+02 5.000000000000000000e-01
1.000000000000000000e+01 2.277876106945566903e+02 5.000000000000000000e-01
1.000000000000000000e+01 2.269911515643165671e+02 5.000000000000000000e-01
1.000000000000000000e+01 2.261946874803456922e+02 5.000000000000000000e-01
1.000000000000000000e+01 2.253982293195803095e+02 5.000000000000000000e-01
1.000000000000000000e+01 2.246017706804196905e+02 5.000000000000000000e-01
1.000000000000000000e+01 2.238053125196542510e+02 5.000000000000000000e-01
1.000000000000000000e+01 2.230088484356834044e+02 5.000000000000000000e-01
1.000000000000000000e+01 2.222123893054432813e+02 5.000000000000000000e-01
1.000000000000000000e+01 2.214159294747215938e+02 5.000000000000000000e-01
1.000000000000000000e+01 2.206194677231260926e+02 5.000000000000000000e-01
1.000000000000000000e+01 2.198230085373066061e+02 5.000000000000000000e-01
1.000000000000000000e+01 2.190265483303963947e+02 5.000000000000000000e-01
1.000000000000000000e+01 2.182300881037901661e+02 5.000000000000000000e-01
1.000000000000000000e+01 2.174336294228010331e+02 5.000000000000000000e-01
1.000000000000000000e+01 2.166371679220403905e+02 5.000000000000000000e-01
1.000000000000000000e+01 2.158407080469227992e+02 5.000000000000000000e-01
1.000000000000000000e+01 2.150442465826166938e+02 5.000000000000000000e-01
1.000000000000000000e+01 2.142477868675572665e+02 5.000000000000000000e-01
1.000000000000000000e+01 2.134513277551194506e+02 5.000000000000000000e-01
1.000000000000000000e+01 2.126548669799660445e+02 5.000000000000000000e-01
1.000000000000000000e+01 2.118584075645404710e+02 5.000000000000000000e-01
1.000000000000000000e+01 2.110619465480432666e+02 5.000000000000000000e-01
1.000000000000000000e+01 2.102654866059822041e+02 5.000000000000000000e-01
1.000000000000000000e+01 2.094690270372180123e+02 5.000000000000000000e-01
1.000000000000000000e+01 2.086725677053744903e+02 5.000000000000000000e-01
1.000000000000000000e+01 2.078761049632269646e+02 5.000000000000000000e-01
1.000000000000000000e+01 2.070796458263822331e+02 5.000000000000000000e-01
1.000000000000000000e+01 2.062831840352928907e+02 5.000000000000000000e-01
1.000000000000000000e+01 2.054867242397704672e+02 5.000000000000000000e-01
1.000000000000000000e+01 2.046902645849982321e+02 5.000000000000000000e-01
1.000000000000000000e+01 2.038938054246536069e+02 5.000000000000000000e-01
1.000000000000000000e+01 2.030973450032660423e+02 5.000000000000000000e-01
1.000000000000000000e+01 2.023008842945295953e+02 5.000000000000000000e-01
1.000000000000000000e+01 2.015044253961902712e+02 5.000000000000000000e-01
1.000000000000000000e+01 2.007079642577932930e+02 5.000000000000000000e-01
1.000000000000000000e+01 1.999115030971306908e+02 5.000000000000000000e-01
1.000000000000000000e+01 1.991150446640320411e+02 5.000000000000000000e-01
1.000000000000000000e+01 1.983185835812901701e+02 5.000000000000000000e-01
1.000000000000000000e+01 1.975221249471728697e+02 5.000000000000000000e-01
1.000000000000000000e+01 1.967256642173620378e+02 5.000000000000000000e-01
1.000000000000000000e+01 1.959292046847782274e+02 5.000000000000000000e-01
1.000000000000000000e+01 1.951327432308914354e+02 5.000000000000000000e-01
1.000000000000000000e+01 1.943362829297417704e+02 5.000000000000000000e-01
1.000000000000000000e+01 1.935398228523296780e+02 5.000000000000000000e-01
1.000000000000000000e+01 1.927433622862583888e+02 5.000000000000000000e-01
1.000000000000000000e+01 1.919469016620186324e+02 5.000000000000000000e-01
1.000000000000000000e+01 1.911504424375486337e+02 5.000000000000000000e-01
1.000000000000000000e+01 1.903539821625924731e+02 5.000000000000000000e-01
1.000000000000000000e+01 1.895575221766312097e+02 5.000000000000000000e-01
1.000000000000000000e+01 1.887610622149522328e+02 5.000000000000000000e-01
1.000000000000000000e+01 1.879646007811788877e+02 5.000000000000000000e-01
1.000000000000000000e+01 1.871681413899775919e+02 5.000000000000000000e-01
1.000000000000000000e+01 1.863716812706155963e+02 5.000000000000000000e-01
1.000000000000000000e+01 1.855752213806676423e+02 5.000000000000000000e-01
1.000000000000000000e+01 1.847787611056028823e+02 5.532640112471486349e-01
1.000000000000000000e+01 1.839823010276212756e+02 5.532666666654465493e-01
1.000000000000000000e+01 1.831858406201924083e+02 5.532687486232199525e-01
1.000000000000000000e+01 1.823893805248208935e+02 5.532695760287236197e-01
1.000000000000000000e+01 1.815929203568983894e+02 5.498120008651866675e-01
1.000000000000000000e+01 1.807964601804114011e+02 5.463639800323307760e-01
1.311517760590271919e+01 2.992878356654541676e+02 5.472194140131326767e-01
1.288830972331481739e+01 2.987166878495495439e+02 5.439626764289451355e-01
1.256047812079376769e+01 2.983996605819176580e+02 5.462830323461339566e-01
1.219658566834089086e+01 2.983996605819176580e+02 5.520845593675098861e-01
1.186875485866221780e+01 2.987166878495495439e+02 5.580601867103505143e-01
1.164188697607433554e+01 2.992878356654541676e+02 5.580695146743763768e-01
1.722077946176253249e+01 3.584227537369316678e+02 6.257144938984878779e-01
1.723041883940849317e+01 3.560890957204196638e+02 7.355057340424470125e-01
1.045018383131708717e+01 3.575368442107728697e+02 5.322509619344308884e-01
1.720093858122377384e+01 3.530133165705550482e+02 8.112564740813263953e-01
1.040513214880546400e+01 3.536039744999560526e+02 5.397781161736792122e-01
1.717503007795721715e+01 3.514542571519901344e+02 8.399278337604513256e-01
1.040700959955934124e+01 3.520314268631170194e+02 5.537651351324284210e-01
1.714582097186619336e+01 3.474922413282632760e+02 8.635647992399486661e-01
1.037143238347879404e+01 3.480395506841774136e+02 5.373184657382887863e-01
1.031667234603421512e+01 3.457607005136610496e+02 5.583593544748733928e-01
1.093821954350056913e+01 3.456615365739099275e+02 6.252888904606053178e-01
1.062936700185211336e+01 3.457172790406830245e+02 6.212347603066081803e-01
1.715439635503930660e+01 3.466859705340241362e+02 8.456773355404011427e-01
1.672057837611304620e+01 3.467588009246528600e+02 7.982630373639395538e-01
1.630482927500810320e+01 3.467987462967474244e+02 7.745166397871701136e-01
1.589875919366808787e+01 3.468200951662269631e+02 7.601393448658559926e-01
1.549723764905737511e+01 3.468320944670546737e+02 7.352013936085580736e-01
1.509800028334103850e+01 3.468398207338643147e+02 6.956445186280949544e-01
1.470549811363577142e+01 3.468441044351828282e+02 6.529882725080353723e-01
1.433287646658821224e+01 3.468485730469865302e+02 5.848441874627101633e-01
1.398327816938941126e+01 3.468589207328855082e+02 5.747113154082806874e-01
1.364442367927074073e+01 3.470020377087936936e+02 6.536517745358472187e-01
1.314692222192234894e+01 3.468806458085624058e+02 6.563134553982123975e-01
1.140308522999515972e+01 3.464724688795774910e+02 6.554479268702175787e-01
1.108382901064722326e+01 3.470168758825733448e+02 6.643786185507120079e-01
1.032661221094188164e+01 3.465266463601812461e+02 5.137741680569283265e-01
1.350275305306381668e+01 3.461137904715890841e+02 6.441223707380548946e-01
1.396148293238599081e+01 3.459736199407728350e+02 7.152305651862790326e-01
1.436143623477071429e+01 3.459333358329317321e+02 5.526915584461885578e-01
1.475272852700537385e+01 3.459253878452428808e+02 6.243842157467729415e-01
1.514858838418642506e+01 3.459249661169574779e+02 6.770496326660644382e-01
1.554751574853249529e+01 3.459237351068240969e+02 7.190361620799164966e-01
1.594792493528524346e+01 3.459192551663456356e+02 7.340388822369884325e-01
1.635062702219853392e+01 3.459084576081201021e+02 7.587726333545601332e-01
1.675795534439431123e+01 3.458884374601092873e+02 7.841313591223830759e-01
1.717468202015277257e+01 3.458522185913324734e+02 8.299917018484475051e-01
1.670548979279504564e+01 3.475856601915215265e+02 8.081275876731446317e-01
1.628232761544485641e+01 3.476492174450304447e+02 7.872729042719373016e-01
1.587273414257179738e+01 3.476875466321390604e+02 7.673857003316566505e-01
1.547093193175884451e+01 3.477124090518888693e+02 7.554785255055246340e-01
1.507217819989382512e+01 3.477373074154434107e+02 7.129043185604833077e-01
1.467569913281463556e+01 3.477786117949586924e+02 6.844848816580682005e-01
1.430041512105781898e+01 3.477892627629530011e+02 6.345999600100460381e-01
1.397945508343703835e+01 3.476848371709000958e+02 5.889321413323759247e-01
1.374143825131324270e+01 3.475851759371627736e+02 5.262641395696752156e-01
1.289644904317938945e+01 3.477074734104744493e+02 6.932659495824031737e-01
1.251418722564349295e+01 3.481724243932328591e+02 7.072433711657974964e-01
1.239637401946819750e+01 3.473888113209956714e+02 6.720648646446933938e-01
1.196329179826982703e+01 3.473803448215099365e+02 6.756128896623729840e-01
1.155579856485918633e+01 3.478607981068592494e+02 7.139687062996887823e-01
1.098290413999064441e+01 3.476431292758448421e+02 6.894466884755590108e-01
1.069114369435236256e+01 3.471443904643737710e+02 6.159018083408884792e-01
1.034231049004945646e+01 3.472766595590229031e+02 5.589638414922563081e-01
1.714640212533011621e+01 3.490900347359340685e+02 8.581433723255224022e-01
1.670308985891329812e+01 3.492155082286085417e+02 8.014949450014150489e-01
1.627534029555721418e+01 3.493145150492191533e+02 7.884018394711139743e-01
1.586299803815556686e+01 3.493787562170388128e+02 7.795384232201914010e-01
1.546695424154254539e+01 3.494131308161208267e+02 7.601195664158005849e-01
1.508838944802072746e+01 3.494346118585874592e+02 7.501852948057177173e-01
1.473121395620418994e+01 3.494818114079735096e+02 7.295761161478876433e-01
1.439651078878285517e+01 3.496545547477180662e+02 7.075589879812236305e-01
1.387175616749283336e+01 3.496107588846414274e+02 6.829725175006545745e-01
1.359812247716954658e+01 3.491614597508414590e+02 6.286967630629445303e-01
1.309471830830820060e+01 3.492255174843647296e+02 5.815020193248772173e-01
1.268333459734298252e+01 3.493056321251627878e+02 7.031246396629222684e-01
1.252810478076745682e+01 3.489451892367711139e+02 7.741057373370865413e-01
1.203591695304426601e+01 3.495310306565964424e+02 6.221130474087350759e-01
1.164860314386828222e+01 3.491281912180238010e+02 7.013214353068004669e-01
1.127411276733302969e+01 3.486786244103890908e+02 5.331469234768574372e-01
1.086916535080191615e+01 3.486022182509721006e+02 5.339428485798856094e-01
1.041819739837180769e+01 3.488125831503476206e+02 5.075909945525893807e-01
1.071791322444270733e+01 3.478474311428978467e+02 5.270334150480857627e-01
1.113262687340043655e+01 3.479466294046944199e+02 7.258780693123088046e-01
1.161655883342934281e+01 3.484429846167737423e+02 7.574803599262489584e-01
1.196399822082966935e+01 3.481738873329791772e+02 7.108384922992039279e-01
1.241923404378684204e+01 3.486456072182196522e+02 7.573097352854774034e-01
1.271115940063999084e+01 3.484027069627192645e+02 7.359121348685810915e-01
1.290364963766702999e+01 3.487406336311848918e+02 5.438251740949389124e-01
1.335369868577965669e+01 3.486451709391469080e+02 5.543070609358444756e-01
1.385059916860465812e+01 3.484506145504282131e+02 6.088082828497712873e-01
1.421766616194374322e+01 3.488321305338375282e+02 6.601262221753126935e-01
1.467301853273064793e+01 3.486777716445124611e+02 7.093187503333640009e-01
1.507381383372205441e+01 3.486082042388696891e+02 7.391784876271041416e-01
1.546700260492767853e+01 3.485716725814438632e+02 7.511590948764006459e-01
1.586652063684623748e+01 3.485343566939633320e+02 7.763928764452766584e-01
1.627795271119658693e+01 3.484770529830591954e+02 7.751013585880790480e-01
1.670480239845231196e+01 3.483918335805568631e+02 8.025973819091392070e-01
1.714822169859031931e+01 3.482819568121921634e+02 8.712328080298749056e-01
1.715410617472851840e+01 3.498819768720874777e+02 8.549049787063958128e-01
1.671622329292425846e+01 3.500129131821893793e+02 8.050117292996774587e-01
1.629173469027371368e+01 3.501187088859463756e+02 7.908287799019453335e-01
1.588022491737020303e+01 3.501929183777847925e+02 7.745461987209310006e-01
1.548499457703821136e+01 3.502381441652565854e+02 7.657693589838284742e-01
1.511572110335789176e+01 3.502654680180340847e+02 7.654176164700063900e-01
1.478675732191939574e+01 3.502649887504995831e+02 7.512595593854515252e-01
1.452947045576984664e+01 3.502056926649384536e+02 7.445623865036992139e-01
1.413199399297765524e+01 3.501339416648592646e+02 7.213175194046836936e-01
1.362306371273350436e+01 3.503568858574608953e+02 7.028215645020284841e-01
1.326988493935035507e+01 3.499578128540981652e+02 6.578801772676122761e-01
1.284314149297344443e+01 3.501038493991615042e+02 6.364474993678961301e-01
1.212000185156724186e+01 3.501561980990680922e+02 6.289437562621720268e-01
1.172416102260329573e+01 3.497829424076213627e+02 5.887469529865712037e-01
1.128218469559536175e+01 3.493945650697285714e+02 5.567320263992614482e-01
1.086759710857590910e+01 3.494998866635392574e+02 6.046891639089017056e-01
1.043315991975153167e+01 3.504254410098149037e+02 5.394457678094293218e-01
1.716500379323022329e+01 3.506672710013299366e+02 8.493511714155459469e-01
1.673405035381992434e+01 3.507999454598356692e+02 8.079049071060411258e-01
1.631409125968157525e+01 3.509113039654060344e+02 7.869462484776355016e-01
1.590484663745535165e+01 3.509978098527188877e+02 7.867064129395404670e-01
1.550829938593156498e+01 3.510636333932224602e+02 7.830112067512572382e-01
1.512355042185219745e+01 3.511019432559580764e+02 7.821170945085489379e-01
1.472729414348156851e+01 3.510954378868188996e+02 7.607260173313563634e-01
1.439285182120298856e+01 3.506267974652862449e+02 7.472033349635555100e-01
1.393314516006967274e+01 3.507424225642570264e+02 7.299391282418881133e-01
1.347272176942557564e+01 3.511513337031056494e+02 7.311944971643523639e-01
1.315095858247470240e+01 3.509525676939194341e+02 7.151503773593556046e-01
1.279777980909155488e+01 3.508843883422475756e+02 6.919061677771130014e-01
1.244358461177831465e+01 3.508392565846544926e+02 6.749513774131512545e-01
1.210049079345823131e+01 3.508209559666592554e+02 6.612886207155886931e-01
1.174458226376360415e+01 3.507039104134665877e+02 6.536806234122417569e-01
1.136001723911620687e+01 3.502853883645235555e+02 6.158788503836849504e-01
1.087742121849621846e+01 3.503450865059872967e+02 5.937735762651376037e-01
1.042227181535837488e+01 3.512335889101873363e+02 5.477968310748324576e-01
1.718821187535332840e+01 3.522367519647322069e+02 8.373252980092790176e-01
1.677498956291080390e+01 3.523639231523914077e+02 7.967879690302707152e-01
1.636979953661164799e+01 3.524713517888837373e+02 7.833809502135476999e-01
1.596891702295855531e+01 3.525636407363589342e+02 7.703344903217345108e-01
1.556934032070394380e+01 3.526430678677360220e+02 7.762863252511587042e-01
1.516740253384415382e+01 3.527151502055136802e+02 7.873952443198473095e-01
1.476558129481411186e+01 3.527320980701668418e+02 7.866554830138433596e-01
1.402393671227805072e+01 3.523510846282284206e+02 7.672398694515001338e-01
1.330075822159527732e+01 3.526193688894200591e+02 7.670196195792433613e-01
1.299260258839812110e+01 3.525101365405736260e+02 7.560333194684678570e-01
1.267490430432525095e+01 3.524159890397551749e+02 7.472072523751761564e-01
1.234149822703626320e+01 3.523195786491025387e+02 7.438785127262214081e-01
1.198666479160777953e+01 3.522100838690724345e+02 7.140430831216382224e-01
1.160393836843769044e+01 3.520988580641652561e+02 7.084529316033919555e-01
1.121364347191603272e+01 3.520170203740660213e+02 6.793721645861774405e-01
1.080097218492702993e+01 3.527717965380430769e+02 6.224853126331584274e-01
1.040217008967687740e+01 3.528270806655554566e+02 5.525629946058036035e-01
1.081620585840043169e+01 3.520010321791751267e+02 6.377043948331264644e-01
1.126269266570345806e+01 3.512234601239082394e+02 6.558135663353120703e-01
1.165661719463695256e+01 3.513812009071052671e+02 6.723791530088025770e-01
1.239417705323550756e+01 3.515882343552424345e+02 7.074299781658619501e-01
1.273531572224857022e+01 3.516622628991765396e+02 7.298898256920529626e-01
1.306203417406926093e+01 3.517640256599547115e+02 7.386656305158969538e-01
1.337583246647897539e+01 3.519143818208196990e+02 7.538143109638338890e-01
1.410882476013113873e+01 3.517030255507936545e+02 7.699831777866397164e-01
1.446465479843022806e+01 3.513833644431832681e+02 7.630277562362725030e-01
1.478063102885554159e+01 3.519406204708618020e+02 7.817183651919299425e-01
1.514848135046523581e+01 3.519135924867922540e+02 7.879916174228104309e-01
1.553819588636534377e+01 3.518618021683626580e+02 7.747832699632331011e-01
1.593671731541327574e+01 3.517851348489348879e+02 7.755313397944381126e-01
1.634247818822542087e+01 3.516874757415375257e+02 7.804038277680674929e-01
1.675619444147016424e+01 3.515707301874164159e+02 8.049963220321069146e-01
1.679752055764208052e+01 3.531224750430278618e+02 7.840628864134353559e-01
1.639963736670937067e+01 3.532166882118108902e+02 7.654262763976190653e-01
1.600596496165244531e+01 3.532969325602545609e+02 7.678711527900569100e-01
1.561120874106320855e+01 3.533730484384214492e+02 7.847327979528878616e-01
1.519834400053369095e+01 3.534669260229732686e+02 7.726822664040097211e-01
1.471579634329881969e+01 3.536274608026633359e+02 7.769390832054793306e-01
1.428905289692192504e+01 3.532578519435569433e+02 7.765172429498981010e-01
1.382254206249054462e+01 3.535898347555781811e+02 7.634068945220046087e-01
1.353933717896591027e+01 3.533605774859385633e+02 7.659376913391470199e-01
1.325113818129484855e+01 3.532800324907098570e+02 7.620003683520345517e-01
1.262642595705084858e+01 3.531589531624006213e+02 7.384426779191342050e-01
1.229394909103022826e+01 3.530431332166604648e+02 7.361274620731910190e-01
1.194689661071093489e+01 3.529085943624900210e+02 7.346653768903931292e-01
1.155561462542721429e+01 3.535116982995988906e+02 7.061793631011257233e-01
1.157272574965449330e+01 3.528145179802442044e+02 7.053358977218021630e-01
1.080471757232624341e+01 3.535472529840145626e+02 6.203306263994291525e-01
1.722107915618186169e+01 3.545551616880836718e+02 7.685029137388611487e-01
1.683242940759697603e+01 3.546333097750712113e+02 7.366406923333318479e-01
1.644675123224924107e+01 3.546953767536688247e+02 7.181267669825265321e-01
1.606708359497798355e+01 3.547377177176153396e+02 7.267229189421662294e-01
1.569762538902331706e+01 3.547680818804504952e+02 7.420155013327794924e-01
1.534825067337543558e+01 3.554293187050196821e+02 7.265357327595094450e-01
1.498662257875746917e+01 3.553247846968074555e+02 7.339831076547304045e-01
1.460455421476208926e+01 3.549997998831144059e+02 7.340250649018006390e-01
1.418752784458431471e+01 3.551473161884748606e+02 7.297027252008254639e-01
1.381721891875679908e+01 3.550538159825310913e+02 7.259706354907563552e-01
1.340634817681089075e+01 3.547663097021568888e+02 7.307535056330505263e-01
1.296319051465799888e+01 3.548017407996824204e+02 7.334100850033193897e-01
1.254961935156865671e+01 3.547576865061379294e+02 7.119431164276917023e-01
1.209717116241664137e+01 3.546541899406881839e+02 6.874671493989092941e-01
1.165544616644291764e+01 3.549007004445840607e+02 6.706235354259632020e-01
1.125329510498312757e+01 3.549950460126730718e+02 6.405785800536731855e-01
1.084627599131524356e+01 3.550809148238166131e+02 5.917411283875677608e-01
1.042641441678953917e+01 3.551763816997486174e+02 5.081620094962450151e-01
1.041311607156371188e+01 3.543933724422024625e+02 5.335387406453349080e-01
1.081869300494388497e+01 3.543228681874336985e+02 6.062926192772329914e-01
1.120819426624399462e+01 3.542675719743940590e+02 6.582597450507664538e-01
1.156910642419357593e+01 3.542227605314502625e+02 6.834746083824325691e-01
1.223613106052919264e+01 3.537938711327082046e+02 7.287295550269952127e-01
1.258493572250644732e+01 3.539392586245763255e+02 7.284901322690582326e-01
1.293843321852601136e+01 3.540049456512339816e+02 7.535779838363541039e-01
1.366503837397156573e+01 3.541665392290605041e+02 7.481328928925046196e-01
1.393452867002131335e+01 3.544349889071261828e+02 7.416633192529894503e-01
1.440373992559614535e+01 3.542764919831720931e+02 7.577557901806406537e-01
1.491633948037110002e+01 3.543954660491513664e+02 7.579653542232043240e-01
1.507857564505135528e+01 3.548478656767671851e+02 7.471603086337006427e-01
1.565964823906104186e+01 3.540772684271062190e+02 7.599881157509350560e-01
1.604063278752408905e+01 3.540170817297528743e+02 7.559324301428045345e-01
1.642674623333799389e+01 3.539499857262762248e+02 7.527348587732840546e-01
1.681840561159420133e+01 3.538670843495785334e+02 7.639065900035026946e-01
1.721364625887713373e+01 3.537734826501832686e+02 8.118165269514022730e-01
1.722788332947990853e+01 3.553208977639648083e+02 7.523206547521122944e-01
1.684864065572389791e+01 3.561230913044446424e+02 6.853670187888181164e-01
1.646481138880437101e+01 3.561459354310446201e+02 6.774642064616737125e-01
1.608262647697925729e+01 3.561509914956272382e+02 6.846816025403512640e-01
1.570324902001878442e+01 3.561361932210959367e+02 7.013839923135759546e-01
1.532543901244194195e+01 3.560895686453538360e+02 7.102456926486593325e-01
1.494028332022205774e+01 3.559970472031967006e+02 7.174998050947669626e-01
1.456092489147869173e+01 3.558841988232000517e+02 7.068414174971702213e-01
1.417193659919790960e+01 3.558505260768216658e+02 7.005107751037552566e-01
1.377088917432993398e+01 3.557756705508467121e+02 6.938703813278042087e-01
1.336913532690211603e+01 3.556689479213987397e+02 7.002715703513561207e-01
1.296151603155320053e+01 3.556293857553591238e+02 6.916670511244052966e-01
1.254627117820141535e+01 3.556000750955538479e+02 6.796706632122107017e-01
1.212839329530840082e+01 3.555923403226236132e+02 6.696849432212916842e-01
1.170847305044662434e+01 3.556747064537922256e+02 6.514283545542460807e-01
1.128996565070455027e+01 3.557664084046431867e+02 6.126508235583947304e-01
1.086864286767404586e+01 3.558637808631948474e+02 5.828333815668468310e-01
1.043661512683996051e+01 3.559648547533871579e+02 5.074890508746259243e-01
1.684814750776405390e+01 3.568746401622295252e+02 6.582249973975555779e-01
1.646351429867205951e+01 3.568804516215395779e+02 6.548228715781848619e-01
1.607806842614141019e+01 3.568733976172166535e+02 6.644440496837443755e-01
1.569233158045760135e+01 3.568509684733290896e+02 6.824839723267551728e-01
1.530570516562437078e+01 3.568071390522389379e+02 6.878848437868557708e-01
1.491678426494581089e+01 3.567449045084983936e+02 6.934496908140943550e-01
1.453218990513040509e+01 3.566809925107481831e+02 6.725232564856897799e-01
1.414289161147935658e+01 3.566287828817963259e+02 6.744725391771567713e-01
1.374388654858012515e+01 3.565727050723496632e+02 6.667874242707985122e-01
1.334551020968759261e+01 3.565188003453271222e+02 6.787308183333325973e-01
1.294566314818167996e+01 3.564830567815185418e+02 6.499659681887657303e-01
1.254034785278662056e+01 3.564640818957487340e+02 6.518232643181582908e-01
1.213402564757001656e+01 3.564686631426246208e+02 6.433788846229637759e-01
1.172387084229251286e+01 3.565079738989905422e+02 6.271367111452545995e-01
1.130730907774891669e+01 3.565724608807983032e+02 6.069575204903518983e-01
1.088170811724038956e+01 3.566572558800249340e+02 5.764684773498061077e-01
1.044284766078262550e+01 3.567532772988531065e+02 5.311957148503787529e-01
1.722617951120706081e+01 3.576394683805059458e+02 6.651229676481896780e-01
1.683304941033749103e+01 3.584180754954559802e+02 5.952265434657979526e-01
1.644301535895858990e+01 3.584078726212320589e+02 6.021041066211793025e-01
1.605153040602579040e+01 3.583916805809014932e+02 5.921231013598963200e-01
1.565898066577776859e+01 3.583701595024041353e+02 6.176741767304483322e-01
1.526547237909333354e+01 3.583447744465009350e+02 6.334844093096791973e-01
1.487134488251076014e+01 3.583173492364218191e+02 6.422049657217789864e-01
1.447734344786648109e+01 3.582901182358997403e+02 6.321807842577400471e-01
1.408271249637314249e+01 3.582648893415021689e+02 6.307515650878389168e-01
1.368674639831328044e+01 3.582434793950048970e+02 6.354758398971751543e-01
1.329038308622144626e+01 3.582280136818126834e+02 6.236851654595897410e-01
1.289331335156976976e+01 3.582184830820388015e+02 6.219115132301810123e-01
1.249512095210919327e+01 3.582142358694594577e+02 6.139114447662799012e-01
1.209582570889917719e+01 3.582156843736854057e+02 6.051505514826232002e-01
1.169431367839700897e+01 3.582247860945590219e+02 5.852861898968326759e-01
1.128807868584212848e+01 3.582454255059684556e+02 5.744519931087193054e-01
1.087252383112007692e+01 3.582829836980084224e+02 5.355871309374289346e-01
1.044161875509491288e+01 3.583433083314583882e+02 5.296817062071073057e-01
1.088162090457868558e+01 3.574628414412472353e+02 5.523291007432955535e-01
1.130267332835790839e+01 3.574052070308708267e+02 5.708394306747928137e-01
1.171416407304431218e+01 3.573666889306600183e+02 6.037674253186706697e-01
1.211893706425201600e+01 3.573452177437915225e+02 6.266110655563855714e-01
1.252005267356461005e+01 3.573403398086745710e+02 6.290363140508861139e-01
1.291977367313222658e+01 3.573494713968840415e+02 6.325191472450917285e-01
1.331719225843072252e+01 3.573703311164414345e+02 6.407270965664697560e-01
1.371406774669950579e+01 3.574012387134731057e+02 6.361247293388367918e-01
1.411074106016158680e+01 3.574394141905737001e+02 6.560331003287593887e-01
1.450296177082225668e+01 3.574814911220412910e+02 6.532758700902582261e-01
1.489284042509485317e+01 3.575251518457362749e+02 6.663910145124064544e-01
1.528439356247224978e+01 3.575667754212981322e+02 6.465138130968476338e-01
1.567556930687715955e+01 3.576011615918229722e+02 6.485078629318442589e-01
1.606566995701592404e+01 3.576248285533404783e+02 6.356920999524713345e-01
1.645451315914132095e+01 3.576383256519661700e+02 6.200504971918823216e-01
1.684161448655968130e+01 3.576432171271260927e+02 6.319892027094002884e-01
1.722973144506575949e+01 3.568612925778604108e+02 7.072443960464697144e-01
1.681904464255182319e+01 3.592087532059106252e+02 5.630989146377559651e-01
1.642359151351126911e+01 3.592015360763627427e+02 5.628592615324179427e-01
1.602742165495995152e+01 3.591914517690504454e+02 5.680410866864569197e-01
1.563080701183392307e+01 3.591792216652740990e+02 5.844961410582925065e-01
1.523375709824173185e+01 3.591657100847252195e+02 6.058926284951245966e-01
1.483648360309861758e+01 3.591521928065641305e+02 6.085291252312873267e-01
1.443929811345958569e+01 3.591393914055325354e+02 6.087331496614694082e-01
1.404206426043542066e+01 3.591275869377015511e+02 6.033059523552980474e-01
1.364449107087298074e+01 3.591179256758382508e+02 6.071535249703934323e-01
1.324672442777000647e+01 3.591113603155279748e+02 6.025389242065780637e-01
1.284851300009234087e+01 3.591076087967602462e+02 6.028029588932636296e-01
1.244977829644440881e+01 3.591061854828215019e+02 5.797734320891620996e-01
1.205055044483661675e+01 3.591068272147934408e+02 5.783004116645839021e-01
1.165044253818796527e+01 3.591097462340049447e+02 5.677999087115583876e-01
1.124804014569398269e+01 3.591173290938803575e+02 5.601456549118822847e-01
1.084078872920900949e+01 3.591328470618312281e+02 5.246697834232079138e-01
1.042548520552115399e+01 3.591618466368575469e+02 5.444201200103628846e-01
1.165165162281619615e+01 3.468776426538565829e+02 6.672947443437611259e-01
1.267322982122045261e+01 3.474528894307288738e+02 6.645019488291521448e-01
1.125620800788420439e+01 3.456245844742042550e+02 6.286575918955252806e-01
1.721300802076189029e+01 3.592137444111369859e+02 5.865481222231492264e-01
1.043382749303478363e+01 3.496172027239006184e+02 5.226499223772285152e-01
1.121513401558888035e+01 3.461555130991146143e+02 6.461643031564524575e-01
1.065162684448972819e+01 3.464458144366732881e+02 6.524950714376314131e-01
1.336118946057806056e+01 3.474914317175747556e+02 7.059139311561204444e-01
1.312486534693381302e+01 3.481250095548380727e+02 7.432878857240460269e-01
1.227978971898061467e+01 3.480969062683316224e+02 6.913961743596215292e-01
1.136912461952575271e+01 3.474160270510514010e+02 6.901038051996903899e-01
1.096557022705484030e+01 3.463290571880060043e+02 6.517894391766285711e-01
1.684412145416262163e+01 3.553747482361509356e+02 7.114794690445672698e-01
1.084873459553304720e+01 3.511931271741416936e+02 6.205990706327709772e-01
1.130320611843671763e+01 3.481658816047637401e+02 7.126790664393473085e-01
1.223434082243701937e+01 3.487250776886912718e+02 7.499683617581366368e-01
1.197397614217153006e+01 3.488688435102412200e+02 7.679525998011654808e-01
1.646037860706242384e+01 3.554154337875363581e+02 6.959143445955604523e-01
1.230255301652899291e+01 3.493167053402124793e+02 7.541662483371595060e-01
1.357518475429773908e+01 3.480434536986952594e+02 5.316823174295343124e-01
1.286504376369805414e+01 3.495397375433030334e+02 5.866385986809392605e-01
1.247368407986117234e+01 3.499651115698026729e+02 6.166654825788324690e-01
1.119196398989998542e+01 3.527754141912228647e+02 6.687069557784690588e-01
1.118830581516247946e+01 3.535236430006355022e+02 6.682802407045838056e-01
1.608074902622537650e+01 3.554393661264192588e+02 7.093523066682575484e-01
1.185763445145197359e+01 3.502103852537643434e+02 6.069366499769329737e-01
1.570932694969750543e+01 3.554468233703765350e+02 7.202083157539795888e-01
1.379396168040620196e+01 3.514243727747169714e+02 7.445556210042979517e-01
1.203986610093491372e+01 3.515047578165824689e+02 6.991164493587371798e-01
1.369628904918897483e+01 3.521143584141048564e+02 7.622564128924651516e-01
1.190874503542522866e+01 3.535895112354543244e+02 7.163585976357094154e-01
1.185365676123567269e+01 3.541445753621825361e+02 6.986716758373434644e-01
1.535387351152852631e+01 3.547989486922614901e+02 7.563680468379907484e-01
1.528330974693992061e+01 3.541590248702943882e+02 7.550520676703930123e-01
1.361516620979458381e+01 3.527670246053672827e+02 7.640044592358108400e-01
1.422544711705291398e+01 3.511014767254936260e+02 7.416066177344556865e-01
1.393809011798855302e+01 3.529824824229784213e+02 7.777573585915575904e-01
1.438358983652951650e+01 3.525803683087704599e+02 7.728024863686963064e-01
1.294899229333181445e+01 3.532372257705144420e+02 7.545051164533496113e-01
1.444133096131978533e+01 3.519133099329837364e+02 7.776011608569036726e-01
1.411935449976891377e+01 3.538678972440588382e+02 7.608215582352934048e-01
1.348339659921873412e+01 3.538417872527444956e+02 7.692166481989105575e-01
1.325803828852078325e+01 3.539752836817664274e+02 7.448595122928834966e-01
1.417395914010717028e+01 3.546329414880916602e+02 7.381850792361155378e-01
1.806608739253282181e+01 3.575215594463236926e+02 5.840633495467466574e-01
1.805902237409201661e+01 3.535503883518081807e+02 7.308728360696390425e-01
1.803648186525218478e+01 3.519851530524052237e+02 7.846162399450571368e-01
1.799054854201491338e+01 3.488883271275662992e+02 8.384238138032993337e-01
1.955706078594384678e+01 3.457591573026188030e+02 8.613751419381987517e-01
1.916763722319689478e+01 3.457513942381217475e+02 8.598815612499554062e-01
1.877682935765591310e+01 3.457527678053796194e+02 8.480113534630578931e-01
1.838615706816178630e+01 3.457605132069484739e+02 8.208556596869323041e-01
1.988974141245590488e+01 3.465674709477551119e+02 8.953927194428006331e-01
1.951720618522767126e+01 3.465218740616308537e+02 8.889917701121146099e-01
1.913763448188430516e+01 3.465023902109550704e+02 8.683940687168349992e-01
1.837328447929356301e+01 3.465254494764020592e+02 8.464533839345645960e-01
1.798891290818668409e+01 3.465489941555664473e+02 8.283085722368872528e-01
1.983332671296598804e+01 3.473521868861772646e+02 8.967239548597859544e-01
1.947567630856432075e+01 3.472715245119517817e+02 8.838085456039299626e-01
1.873931602048545386e+01 3.472548961738569346e+02 8.669501090949225386e-01
1.836397413123495781e+01 3.472869426979751779e+02 8.527507959077899047e-01
1.798477109959789288e+01 3.473265085074932017e+02 8.488594767120130058e-01
1.961573032916012238e+01 3.490297414849866868e+02 8.823040554171626138e-01
1.909576606152504041e+01 3.486630644443786764e+02 8.770980810521260551e-01
1.874638183176861261e+01 3.487457887800472918e+02 8.663975716832678087e-01
1.837292690738055967e+01 3.488202437535318836e+02 8.574817239451043571e-01
1.799865931955383047e+01 3.496652497453432602e+02 8.361912605516006458e-01
1.836269686216211028e+01 3.480506641948483093e+02 8.467594469896003728e-01
1.873212573294873096e+01 3.479977636856588674e+02 8.647056344350158019e-01
1.908671735145156845e+01 3.479601527981700428e+02 8.827473897781197287e-01
1.976313954850749610e+01 3.481485027223102975e+02 8.974445210234187620e-01
1.966119904676320118e+01 3.499333959246962991e+02 8.684025030549770152e-01
1.924167601593341459e+01 3.500660622835994786e+02 8.502028849643082919e-01
1.882832684871021911e+01 3.502056980443869634e+02 8.459047879757184418e-01
1.841882138134123892e+01 3.503305750500698537e+02 8.331846686063218987e-01
1.800992481691947589e+01 3.504391511102220420e+02 8.385006836042229184e-01
1.969612771777758553e+01 3.507613503101352990e+02 8.323198456997510375e-01
1.928154013075813111e+01 3.508486767005636011e+02 8.428561010141784049e-01
1.886340140272235999e+01 3.509658113819759251e+02 8.281370477350317172e-01
1.844312279310522129e+01 3.510925352191190427e+02 8.204404488680611118e-01
1.802233200731112817e+01 3.512145409387712220e+02 8.148692556952952248e-01
1.975746834696929000e+01 3.523576394485446031e+02 7.962742916219662792e-01
1.934190397813869211e+01 3.524190115570384592e+02 7.834323132672198486e-01
1.891842228530969550e+01 3.525148356588106253e+02 7.697208754986476498e-01
1.848660781907560846e+01 3.526373663180849007e+02 7.647181193249920073e-01
1.804732160626022619e+01 3.527719585922348529e+02 7.521001755436894642e-01
1.846508294132348738e+01 3.518621413124062656e+02 7.935864511677854782e-01
1.889111996514056102e+01 3.517424819376716982e+02 8.079706870184542034e-01
1.931215256786029499e+01 3.516416228080817064e+02 8.008774679326371437e-01
1.972718493945447804e+01 3.515720620121281854e+02 8.193085868739155009e-01
1.978387079103806911e+01 3.531716527655522668e+02 7.487089720354118683e-01
1.936647654199633450e+01 3.532251616862200194e+02 7.465553318180457865e-01
1.893954994902984623e+01 3.533131741670375732e+02 7.409702591365379121e-01
1.850247973066423413e+01 3.534294488023945746e+02 7.368170856265023883e-01
1.981902225076099455e+01 3.547967136418100722e+02 6.639127171400149852e-01
1.940067976223378565e+01 3.548342128458940579e+02 6.693122706194247762e-01
1.897073323264501354e+01 3.549071987841937812e+02 6.650501828951393968e-01
1.852741065927727249e+01 3.550122850028748189e+02 6.737276573321555606e-01
1.807139150804947647e+01 3.551361428835708125e+02 6.562225531108902832e-01
1.806498375594100381e+01 3.543433963800587208e+02 7.006380972094993220e-01
1.851470377446629456e+01 3.542213968028656268e+02 6.988458139390660850e-01
1.895489937749059806e+01 3.541157291203846853e+02 7.157333553983580288e-01
1.938392620991951176e+01 3.540384389779675871e+02 7.100175301835515151e-01
1.980226869844672066e+01 3.539946298871064982e+02 6.974723779011700042e-01
1.981703776628592806e+01 3.556302726557870528e+02 6.447659244299849268e-01
1.940062188474009020e+01 3.556619486445776488e+02 6.556626882500345976e-01
1.897217541293272802e+01 3.557259580725619799e+02 6.535441394186961572e-01
1.852893053811812862e+01 3.558204296155763586e+02 6.474168302419962551e-01
1.807140102215802102e+01 3.559341740968647514e+02 6.476200678379935294e-01
1.979958809836274725e+01 3.564749586181147265e+02 6.188621645111724856e-01
1.938665596623098963e+01 3.564994348959529020e+02 6.180644536280178736e-01
1.896221651980795286e+01 3.565500035639060457e+02 6.266961539756862321e-01
1.852281375916283679e+01 3.566290137527187767e+02 6.410089900532066620e-01
1.806793630096104764e+01 3.567308484943674216e+02 6.223896329765513658e-01
1.972473664218759382e+01 3.581947259378255239e+02 5.515458134164942239e-01
1.931994382992040826e+01 3.582027116756574401e+02 5.500255272854035482e-01
1.890910163030016733e+01 3.582238354932915740e+02 5.524441179435817251e-01
1.848825296701238230e+01 3.582641931517684384e+02 5.498924346217108905e-01
1.805303165707500312e+01 3.583305279636311980e+02 5.902343893406341024e-01
1.850870275049833680e+01 3.574404796863324236e+02 6.139964201064633809e-01
1.893880467719343130e+01 3.573835870948114461e+02 5.999379836262457300e-01
1.935654698403960694e+01 3.573501825522934610e+02 5.848433706652631514e-01
1.976540469918477783e+01 3.573342601809011398e+02 5.929621021258588698e-01
1.966047280314387535e+01 3.590896351468742296e+02 5.063559400792611020e-01
1.926015162189522556e+01 3.590927138974515742e+02 5.161503098374207177e-01
1.885714904772021328e+01 3.591015481242512237e+02 5.098899662325624416e-01
1.844923957206051313e+01 3.591196985031436384e+02 5.111261120524014379e-01
1.799455556739925299e+01 3.457713532428401777e+02 8.117459813994486462e-01
1.803358799056821482e+01 3.591530476937612661e+02 5.945680122488479213e-01
1.798501291652354439e+01 3.481064888819616385e+02 8.418793849956860420e-01
1.875583726998260303e+01 3.465053777491725668e+02 8.597999060641811075e-01
1.839236105977878566e+01 3.495794035121307957e+02 8.474995122192259256e-01
1.910913179835310416e+01 3.472429706460716261e+02 8.741889558078792533e-01
1.878475540292048507e+01 3.494769525342323959e+02 8.564522484664177648e-01
1.943231813737460456e+01 3.479830801140348626e+02 8.864807877414766502e-01
1.918067393043760660e+01 3.493379754697318162e+02 8.598017490812721597e-01
1.937958143368166475e+01 3.485570372346300019e+02 8.881346755420982397e-01
1.719207381058227213e+01 3.411983002984358109e+02 7.139294850033520712e-01
1.042780823369211873e+01 3.424902446544616623e+02 5.479742102442106688e-01
1.719572247121121933e+01 3.388184485181359378e+02 6.458705200078372899e-01
1.045529449329322702e+01 3.400799550543143823e+02 8.649081147710349082e-01
1.718125309779133403e+01 3.356689369439668553e+02 5.325791306928835400e-01
1.045709424549394484e+01 3.369079339972403204e+02 7.610527153835965342e-01
1.718503733446711834e+01 3.332943752194782405e+02 5.332602837521662753e-01
1.045027104397879114e+01 3.345200301299713601e+02 5.457765359709032538e-01
1.719826749524834852e+01 3.317170017077312991e+02 5.634468840021347180e-01
1.044069905793507047e+01 3.321338460228174654e+02 5.276071802450693626e-01
1.718521175979053339e+01 3.270474871619704231e+02 7.225004107249645147e-01
1.039839615995201605e+01 3.282420651466340473e+02 6.101402424864128538e-01
1.717021038913423681e+01 3.246721534958618349e+02 7.832391362912043409e-01
1.041624224906478702e+01 3.258810757493600363e+02 6.627632439225156213e-01
1.717189438634759924e+01 3.190938801323956682e+02 6.586691463021340232e-01
1.044104790858190768e+01 3.203161747913100612e+02 7.443844796921358364e-01
1.717916316527983867e+01 3.175059730951990673e+02 6.249885793309436499e-01
1.042689805064083863e+01 3.179402679504728439e+02 7.748779486637944469e-01
1.720764602775155439e+01 3.127855078146897654e+02 5.367046401397812527e-01
1.040808390098310987e+01 3.140605834999839203e+02 8.420484986341454370e-01
1.717696619904716826e+01 3.104542529964049322e+02 5.178002213330478165e-01
1.043377912964966825e+01 3.116898371290375849e+02 8.133491835149219140e-01
1.716372573131500090e+01 3.088703262915440746e+02 5.375419393823225311e-01
1.044191924235661695e+01 3.092995833398435366e+02 7.326755685831817244e-01
1.714994454508024901e+01 3.048732831091965068e+02 5.320743533511820278e-01
1.040058281923376526e+01 3.053441768451580174e+02 5.437370215386199135e-01
1.714887975776502671e+01 3.032781645577395011e+02 5.227494025384438192e-01
1.036201500169899958e+01 3.037829997133148936e+02 5.010653852326685254e-01
1.029367674566873170e+01 3.014860791919290364e+02 5.853328488284464948e-01
1.036578021015767703e+01 3.441319070108946789e+02 6.353605340505679155e-01
1.071334565949629791e+01 3.441043121061220518e+02 5.864318472913437885e-01
1.136480759277115915e+01 3.441680249490974575e+02 5.753492797143437976e-01
1.040275124314080202e+01 3.433067839179836938e+02 5.349449910274228781e-01
1.079233971710261741e+01 3.432499228739750379e+02 6.319505280910715506e-01
1.117079747690324609e+01 3.432549726169182804e+02 5.955649611424451706e-01
1.153051878559930898e+01 3.433630831876293428e+02 5.444813976614372164e-01
1.319169403107412819e+01 3.434039966035999214e+02 6.015236019527619993e-01
1.376075585588175443e+01 3.430558516658697386e+02 5.110063902168340277e-01
1.416319709765230783e+01 3.431783687917420593e+02 5.380694302854932554e-01
1.456140852532999119e+01 3.432523454206170186e+02 5.350529590865431562e-01
1.493862786533436449e+01 3.433323559848486184e+02 6.053312824056318320e-01
1.528794549633094668e+01 3.434281755259676174e+02 6.378584281323792515e-01
1.562840707795217554e+01 3.434836345612294508e+02 6.640984472170881059e-01
1.596866489908196840e+01 3.433701127060771228e+02 6.886956304684951347e-01
