1.357695708536404489e+01 1.800000000000000000e+02 7.064423391332098845e+01
1.421890506225053308e+01 1.800000000000000000e+02 7.067613743623257960e+01
1.486085175777560607e+01 1.800000000000000000e+02 7.070931708954240946e+01
1.550279973466209427e+01 1.800000000000000000e+02 7.076830643307704349e+01
1.229306113159110048e+01 9.079646018041135846e+01 7.079056892125265676e+01
1.229306113159110048e+01 9.159292035689830414e+01 7.079366536837176227e+01
1.229306113159110048e+01 9.238938052482092189e+01 7.078632776550711014e+01
1.229306113159110048e+01 9.318584062019239411e+01 7.080783685005678763e+01
1.229306113159110048e+01 9.398230102762128979e+01 7.082475643492614381e+01
1.229306113159110048e+01 9.477876110560288225e+01 7.083915470723331964e+01
1.229306113159110048e+01 9.557522138066759965e+01 7.087867527824596436e+01
1.229306113159110048e+01 9.637168127061559630e+01 7.090950643772265494e+01
1.229306113159110048e+01 9.716814138997760608e+01 7.094725423402201159e+01
1.229306113159110048e+01 9.796460138013375740e+01 7.100047675232360689e+01
1.229306113159110048e+01 9.876106221495224702e+01 7.102009166125719730e+01
1.229306113159110048e+01 9.955752217663119552e+01 7.103131289392268854e+01
1.229306113159110048e+01 1.003539821625925441e+02 7.113322853491104070e+01
1.229306113159110048e+01 1.011504424375486337e+02 7.120978365115337283e+01
1.229306113159110048e+01 1.019469016620186466e+02 7.128361784186544980e+01
1.229306113159110048e+01 1.027433622862582752e+02 7.134193519623022439e+01
1.229306113159110048e+01 1.035398228523297206e+02 7.146164056369417494e+01
1.229306113159110048e+01 1.043362829297417989e+02 7.154678099438416439e+01
1.229306113159110048e+01 1.051327432308914354e+02 7.161864311599094890e+01
1.229306113159110048e+01 1.059292046847781990e+02 7.165759942201475496e+01
1.229306113159110048e+01 1.067256642173620378e+02 7.166502490564442951e+01
1.229306113159110048e+01 1.075221249471729834e+02 7.169476364881199970e+01
1.229306113159110048e+01 1.083185835812902269e+02 7.168978167610879382e+01
1.229306113159110048e+01 1.091150446640320411e+02 7.166497655861934390e+01
1.229306113159110048e+01 1.099115042942556357e+02 7.164607971594233504e+01
1.229306113159110048e+01 1.107079642577933214e+02 7.156706336373736121e+01
1.229306113159110048e+01 1.115044253961902427e+02 7.148741965760507355e+01
1.229306113159110048e+01 1.123008842945295811e+02 7.144604326076205325e+01
1.229306113159110048e+01 1.130973450032659997e+02 7.135027067571451198e+01
1.229306113159110048e+01 1.138938054246536069e+02 7.127786371121817410e+01
1.229306113159110048e+01 1.146902645849982036e+02 7.119126596834342990e+01
1.229306113159110048e+01 1.154867242397704246e+02 7.113384922848092629e+01
1.229306113159110048e+01 1.162831840352929191e+02 7.103713140919006719e+01
1.229306113159110048e+01 1.170796458263822615e+02 7.094541626919289001e+01
1.229306113159110048e+01 1.178761049632269646e+02 7.087639402355534912e+01
1.229306113159110048e+01 1.186725677053745613e+02 7.076218095402407471e+01
1.229306113159110048e+01 1.194690270372179981e+02 7.067491129388525906e+01
1.229306113159110048e+01 1.202654866059822041e+02 7.059609943428989709e+01
1.229306113159110048e+01 1.210619465480432382e+02 7.050283960045931053e+01
1.229306113159110048e+01 1.218584075645404852e+02 7.042493793996385421e+01
1.229306113159110048e+01 1.226548669799660445e+02 7.039622398837866513e+01
1.229306113159110048e+01 1.234513277551193937e+02 7.033323894202169413e+01
1.229306113159110048e+01 1.242477868675572807e+02 7.029008207349056647e+01
1.229306113159110048e+01 1.250442465826166796e+02 7.023677726965576085e+01
1.229306113159110048e+01 1.258407080469227139e+02 7.025270800072371458e+01
1.229306113159110048e+01 1.266371679220403195e+02 7.021899437759492457e+01
1.229306113159110048e+01 1.274336294228010615e+02 7.017922349824715411e+01
1.229306113159110048e+01 1.282300881037901945e+02 7.015747534628508220e+01
1.229306113159110048e+01 1.290265483303963663e+02 7.013922593072999234e+01
1.229306113159110048e+01 1.298230085373066061e+02 7.012406613381983789e+01
1.229306113159110048e+01 1.306194677231260926e+02 7.012086679057733818e+01
1.229306113159110048e+01 1.314159294747215654e+02 7.012007322912472773e+01
1.229306113159110048e+01 1.322123893054432813e+02 7.013956641435134998e+01
1.229306113159110048e+01 1.330088484356833476e+02 7.010288725217060346e+01
1.229306113159110048e+01 1.338053107967317601e+02 7.009320672007083886e+01
1.229306113159110048e+01 1.346017706804196905e+02 7.008862105654645802e+01
1.229306113159110048e+01 1.353982293195803095e+02 7.004823437714651391e+01
1.229306113159110048e+01 1.361946892032682115e+02 7.002870191095837527e+01
1.229306113159110048e+01 1.369911515643165956e+02 7.002461062982240492e+01
1.229306113159110048e+01 1.377876106945566903e+02 7.005896545391652808e+01
1.229306113159110048e+01 1.385840705252784062e+02 7.009513902217679515e+01
1.229306113159110048e+01 1.393805322768739074e+02 7.012817096009348461e+01
1.229306113159110048e+01 1.401769914626933655e+02 7.014076645198296944e+01
1.229306113159110048e+01 1.409734516696036053e+02 7.015394493887123417e+01
1.229306113159110048e+01 1.417699118962098055e+02 7.014579477188345891e+01
1.229306113159110048e+01 1.425663705771989100e+02 7.014675560461586201e+01
1.229306113159110048e+01 1.433628320779596663e+02 7.011742307436196597e+01
1.229306113159110048e+01 1.441592919530772292e+02 7.004664025832124707e+01
1.229306113159110048e+01 1.449557534173832778e+02 7.001176022276507638e+01
1.229306113159110048e+01 1.457522131324426766e+02 7.014289784741919220e+01
1.229306113159110048e+01 1.465486722448805494e+02 7.022441471822560288e+01
1.229306113159110048e+01 1.473451330200339555e+02 7.006085463035992689e+01
1.229306113159110048e+01 1.481415924354594722e+02 7.007008636232421850e+01
1.229306113159110048e+01 1.489380534519567334e+02 7.017266859780045252e+01
1.229306113159110048e+01 1.497345133940177959e+02 7.025641642083769511e+01
1.229306113159110048e+01 1.505309729627819593e+02 7.028766391003813396e+01
1.229306113159110048e+01 1.513274322946254244e+02 7.035922142160256954e+01
1.229306113159110048e+01 1.521238950367730070e+02 7.040927596740442596e+01
1.229306113159110048e+01 1.529203541736177101e+02 7.043819175485788264e+01
1.229306113159110048e+01 1.537168159647070809e+02 7.048351667538121035e+01
1.229306113159110048e+01 1.545132757602295328e+02 7.049855744654740874e+01
1.229306113159110048e+01 1.553097354150017679e+02 7.052533855224339732e+01
1.229306113159110048e+01 1.561061945753463647e+02 7.054889600984876097e+01
1.229306113159110048e+01 1.569026549967339577e+02 7.054456535472388623e+01
1.229306113159110048e+01 1.576991157054703478e+02 7.054924012684182344e+01
1.229306113159110048e+01 1.584955746038097288e+02 7.053143606708965763e+01
1.229306113159110048e+01 1.592920357422066502e+02 7.052734436185806999e+01
1.229306113159110048e+01 1.600884957057443501e+02 7.051003874869405763e+01
1.229306113159110048e+01 1.608849553359679589e+02 7.049435618676716331e+01
1.229306113159110048e+01 1.616814164187097731e+02 7.046916335026980960e+01
1.229306113159110048e+01 1.624778750528269882e+02 7.047083048611989398e+01
1.229306113159110048e+01 1.632743357826379338e+02 7.046270346737912860e+01
1.229306113159110048e+01 1.640707953152217726e+02 7.042188383060636170e+01
1.229306113159110048e+01 1.648672567691085078e+02 7.036822862975481030e+01
1.229306113159110048e+01 1.656637170702582011e+02 7.034374778592194843e+01
1.229306113159110048e+01 1.664601771476702652e+02 7.035298717501478905e+01
1.229306113159110048e+01 1.672566377137416680e+02 7.035954215608524009e+01
1.229306113159110048e+01 1.680530983379813108e+02 7.033852366648994803e+01
1.229306113159110048e+01 1.688495575624513094e+02 7.033574176985985105e+01
1.229306113159110048e+01 1.696460178374074417e+02 7.032041450205144884e+01
1.229306113159110048e+01 1.704424778233687903e+02 7.030905631638830755e+01
1.229306113159110048e+01 1.712389377850477103e+02 7.029881506725837426e+01
1.229306113159110048e+01 1.720353986198661858e+02 7.028484162484767239e+01
1.229306113159110048e+01 1.728318586100223513e+02 7.027528467475025309e+01
1.229306113159110048e+01 1.736283187293843469e+02 7.027698611839423393e+01
1.229306113159110048e+01 1.744247786193323577e+02 7.026593832610774371e+01
1.229306113159110048e+01 1.752212388943971177e+02 7.028091484986214255e+01
1.229306113159110048e+01 1.760176989723786676e+02 7.030296763879943001e+01
1.229306113159110048e+01 1.768141593798075917e+02 7.033272910076789231e+01
1.229306113159110048e+01 1.776106194751790781e+02 7.036893294475618177e+01
1.229306113159110048e+01 1.784070796431016674e+02 7.040899225863665833e+01
1.229306113159110048e+01 1.792035398195885989e+02 7.045068315290041028e+01
1.164606202798347923e+01 1.800000000000000000e+02 7.043691627375301323e+01
1.099906164301445166e+01 1.800000000000000000e+02 7.045877197397408054e+01
1.035206125804544897e+01 1.800000000000000000e+02 7.040646667213013643e+01
9.705062154437834820e+00 1.800000000000000000e+02 7.034981651003715797e+01
9.058046393131760965e+00 1.800000000000000000e+02 7.030082475522709728e+01
8.411046008162758270e+00 1.800000000000000000e+02 7.026180964767098658e+01
7.764046904555143236e+00 1.800000000000000000e+02 7.020881189468451566e+01
7.117046519586111231e+00 1.800000000000000000e+02 7.016191402457258164e+01
6.470030758280036487e+00 1.800000000000000000e+02 7.012325563224833047e+01
5.823030373311033792e+00 1.800000000000000000e+02 7.008310342595973452e+01
5.176031269703418758e+00 1.800000000000000000e+02 7.000419221997037766e+01
4.529030884734416063e+00 1.800000000000000000e+02 7.003632308352518976e+01
3.882031781126801029e+00 1.800000000000000000e+02 7.003676173829722984e+01
3.235016019820727617e+00 1.800000000000000000e+02 7.006997460729047589e+01
2.588015634851694280e+00 1.800000000000000000e+02 7.003743326163595384e+01
1.941015249882691363e+00 1.800000000000000000e+02 7.000132788413390017e+01
1.294016146275076773e+00 1.800000000000000000e+02 7.005001745461731844e+01
6.470157613060734114e-01 1.800000000000000000e+02 7.004929052725475458e+01
2.562722841764919934e+00 1.195755509350593968e+02 7.008586409662711958e+01
2.562722841764919934e+00 1.204244478166129966e+02 7.002667122794150600e+01
2.734374017706307392e+00 1.220694013256472346e+02 7.009257241117325066e+01
3.203294636485358726e+00 1.226524223262398863e+02 7.012078211009185225e+01
3.844084262647379902e+00 1.228659841676097955e+02 7.011692899041776172e+01
4.484890546507831033e+00 1.226524223262398863e+02 7.009120457438376661e+01
4.953811165286881923e+00 1.220694013256472346e+02 7.005305905745308337e+01
5.125445683529839869e+00 1.204244478166129824e+02 7.000821566557965525e+01
5.125445683529839869e+00 1.195755509350593968e+02 7.006035858407619799e+01
4.953811165286881923e+00 1.179305990429559614e+02 7.019841593589063677e+01
4.484890546507831033e+00 1.173475755890361256e+02 7.019155261051389516e+01
3.844084262647379902e+00 1.171340165429103450e+02 7.022495991305947882e+01
3.203294636485358726e+00 1.173475755890361256e+02 7.023021587579302150e+01
2.734374017706307392e+00 1.179305990429559614e+02 7.020764882729548617e+01
1.293500910847755847e+01 8.999999999999998579e+01 7.084190303804786026e+01
1.357695708536404489e+01 8.999999999999998579e+01 7.087914987396169408e+01
1.421890506225053308e+01 8.999999999999998579e+01 7.092230897029588732e+01
1.486085175777560607e+01 8.999999999999998579e+01 7.096390231665890269e+01
1.550279973466209427e+01 8.999999999999998579e+01 7.099818177252404894e+01
1.164606202798347923e+01 2.700000000000000000e+02 7.015819799119270783e+01
1.099906164301445166e+01 2.700000000000000000e+02 7.011795625272458210e+01
1.035206125804544897e+01 2.700000000000000000e+02 7.012507982752720181e+01
9.705062154437834820e+00 2.700000000000000000e+02 7.014139421309067757e+01
9.058046393131760965e+00 2.700000000000000000e+02 7.015221925384150836e+01
8.411046008162758270e+00 2.700000000000000000e+02 7.015330903206154289e+01
7.764046904555143236e+00 2.700000000000000000e+02 7.019322197414589937e+01
7.117046519586111231e+00 2.700000000000000000e+02 7.018486026773808817e+01
6.470030758280036487e+00 2.700000000000000000e+02 7.018444112076832653e+01
5.823030373311033792e+00 2.700000000000000000e+02 7.018232895001033000e+01
5.176031269703418758e+00 2.700000000000000000e+02 7.016217705012951456e+01
4.529030884734416063e+00 2.700000000000000000e+02 7.013488329785900532e+01
3.882031781126801029e+00 2.700000000000000000e+02 7.008381372600086934e+01
3.235016019820727617e+00 2.700000000000000000e+02 7.004791386993258584e+01
2.588015634851694280e+00 2.700000000000000000e+02 7.013926083085942764e+01
1.941015249882691363e+00 2.700000000000000000e+02 7.011235493040652500e+01
1.294016146275076773e+00 2.700000000000000000e+02 7.008802620433561970e+01
6.470157613060734114e-01 2.700000000000000000e+02 7.010588303927391962e+01
0.000000000000000000e+00 2.692035398195886273e+02 7.000000000000000000e+01
0.000000000000000000e+00 2.684070796431016674e+02 7.000000000000000000e+01
0.000000000000000000e+00 2.676106194751790781e+02 7.000000000000000000e+01
0.000000000000000000e+00 2.668141593798076201e+02 7.000000000000000000e+01
0.000000000000000000e+00 2.660176989723786960e+02 7.000000000000000000e+01
0.000000000000000000e+00 2.652212388943971177e+02 7.000000000000000000e+01
0.000000000000000000e+00 2.644247786193323577e+02 7.000000000000000000e+01
0.000000000000000000e+00 2.636283187293843753e+02 7.000000000000000000e+01
0.000000000000000000e+00 2.628318586100223797e+02 7.000000000000000000e+01
0.000000000000000000e+00 2.620353992188210555e+02 7.000000000000000000e+01
0.000000000000000000e+00 2.612389377850477672e+02 7.000000000000000000e+01
0.000000000000000000e+00 2.604424778233687903e+02 7.000000000000000000e+01
0.000000000000000000e+00 2.596460178374074417e+02 7.000000000000000000e+01
0.000000000000000000e+00 2.588495575624512526e+02 7.000000000000000000e+01
0.000000000000000000e+00 2.580530983379813392e+02 7.000000000000000000e+01
0.000000000000000000e+00 2.572566377137416680e+02 7.000000000000000000e+01
0.000000000000000000e+00 2.564601771476702652e+02 7.000000000000000000e+01
0.000000000000000000e+00 2.556637170702582011e+02 7.000000000000000000e+01
0.000000000000000000e+00 2.548672567691085646e+02 7.000000000000000000e+01
0.000000000000000000e+00 2.540707953152218010e+02 7.000000000000000000e+01
0.000000000000000000e+00 2.532743357826379906e+02 7.000000000000000000e+01
0.000000000000000000e+00 2.524778750528269313e+02 7.000000000000000000e+01
0.000000000000000000e+00 2.516814164187097731e+02 7.000000000000000000e+01
0.000000000000000000e+00 2.508849553359679589e+02 7.000000000000000000e+01
0.000000000000000000e+00 2.500884969028692808e+02 7.000000000000000000e+01
0.000000000000000000e+00 2.492920357422066786e+02 7.000000000000000000e+01
0.000000000000000000e+00 2.484955746038096720e+02 7.000000000000000000e+01
0.000000000000000000e+00 2.476991157054704047e+02 7.000000000000000000e+01
0.000000000000000000e+00 2.469026549967339292e+02 7.000000000000000000e+01
0.000000000000000000e+00 2.461061945753463931e+02 7.000000000000000000e+01
0.000000000000000000e+00 2.453097354150016827e+02 7.000000000000000000e+01
0.000000000000000000e+00 2.445132757602295897e+02 7.000000000000000000e+01
0.000000000000000000e+00 2.437168159647070809e+02 7.000000000000000000e+01
0.000000000000000000e+00 2.429203541736176817e+02 7.000000000000000000e+01
0.000000000000000000e+00 2.421238950367728933e+02 7.000000000000000000e+01
0.000000000000000000e+00 2.413274322946253676e+02 7.000000000000000000e+01
0.000000000000000000e+00 2.405309729627819593e+02 7.000000000000000000e+01
0.000000000000000000e+00 2.397345133940177675e+02 7.000000000000000000e+01
0.000000000000000000e+00 2.389380534519567902e+02 7.000000000000000000e+01
0.000000000000000000e+00 2.381415924354594722e+02 7.000000000000000000e+01
0.000000000000000000e+00 2.373451330200339271e+02 7.000000000000000000e+01
0.000000000000000000e+00 2.365486722448804926e+02 7.000000000000000000e+01
0.000000000000000000e+00 2.357522131324427903e+02 7.000000000000000000e+01
0.000000000000000000e+00 2.349557534173832778e+02 7.000000000000000000e+01
0.000000000000000000e+00 2.341592919530772008e+02 7.000000000000000000e+01
0.000000000000000000e+00 2.333628320779596663e+02 7.000000000000000000e+01
0.000000000000000000e+00 2.325663705771988816e+02 7.000000000000000000e+01
0.000000000000000000e+00 2.317699118962098055e+02 7.000000000000000000e+01
0.000000000000000000e+00 2.309734516696036337e+02 7.000000000000000000e+01
0.000000000000000000e+00 2.301769914626933655e+02 7.000000000000000000e+01
0.000000000000000000e+00 2.293805322768739074e+02 7.000000000000000000e+01
0.000000000000000000e+00 2.285840705252784062e+02 7.000000000000000000e+01
0.000000000000000000e+00 2.277876106945566903e+02 7.000000000000000000e+01
0.000000000000000000e+00 2.269911515643165671e+02 7.000000000000000000e+01
0.000000000000000000e+00 2.261946874803456922e+02 7.000000000000000000e+01
0.000000000000000000e+00 2.253982293195803095e+02 7.000000000000000000e+01
0.000000000000000000e+00 2.246017706804196905e+02 7.000000000000000000e+01
0.000000000000000000e+00 2.238053125196542510e+02 7.000000000000000000e+01
0.000000000000000000e+00 2.230088484356834044e+02 7.000000000000000000e+01
0.000000000000000000e+00 2.222123893054432813e+02 7.000000000000000000e+01
0.000000000000000000e+00 2.214159294747215938e+02 7.000000000000000000e+01
0.000000000000000000e+00 2.206194677231260926e+02 7.000000000000000000e+01
0.000000000000000000e+00 2.198230085373066061e+02 7.000000000000000000e+01
0.000000000000000000e+00 2.190265483303963947e+02 7.000000000000000000e+01
0.000000000000000000e+00 2.182300881037901661e+02 7.000000000000000000e+01
0.000000000000000000e+00 2.174336294228010331e+02 7.000000000000000000e+01
0.000000000000000000e+00 2.166371679220403905e+02 7.000000000000000000e+01
0.000000000000000000e+00 2.158407080469227992e+02 7.000000000000000000e+01
0.000000000000000000e+00 2.150442465826166938e+02 7.000000000000000000e+01
0.000000000000000000e+00 2.142477868675572665e+02 7.000000000000000000e+01
0.000000000000000000e+00 2.134513277551194506e+02 7.000000000000000000e+01
0.000000000000000000e+00 2.126548669799660445e+02 7.000000000000000000e+01
0.000000000000000000e+00 2.118584075645404710e+02 7.000000000000000000e+01
0.000000000000000000e+00 2.110619465480432666e+02 7.000000000000000000e+01
0.000000000000000000e+00 2.102654866059822041e+02 7.000000000000000000e+01
0.000000000000000000e+00 2.094690270372180123e+02 7.000000000000000000e+01
0.000000000000000000e+00 2.086725677053744903e+02 7.000000000000000000e+01
0.000000000000000000e+00 2.078761049632269646e+02 7.000000000000000000e+01
0.000000000000000000e+00 2.070796458263822331e+02 7.000000000000000000e+01
0.000000000000000000e+00 2.062831840352928907e+02 7.000000000000000000e+01
0.000000000000000000e+00 2.054867242397704672e+02 7.000000000000000000e+01
0.000000000000000000e+00 2.046902645849982321e+02 7.000000000000000000e+01
0.000000000000000000e+00 2.038938054246536069e+02 7.000000000000000000e+01
0.000000000000000000e+00 2.030973450032660423e+02 7.000000000000000000e+01
0.000000000000000000e+00 2.023008842945295953e+02 7.000000000000000000e+01
0.000000000000000000e+00 2.015044253961902712e+02 7.000000000000000000e+01
0.000000000000000000e+00 2.007079642577932930e+02 7.000000000000000000e+01
0.000000000000000000e+00 1.999115030971306908e+02 7.000000000000000000e+01
0.000000000000000000e+00 1.991150446640320411e+02 7.000000000000000000e+01
0.000000000000000000e+00 1.983185835812901701e+02 7.000000000000000000e+01
0.000000000000000000e+00 1.975221249471728697e+02 7.000000000000000000e+01
0.000000000000000000e+00 1.967256642173620378e+02 7.000000000000000000e+01
0.000000000000000000e+00 1.959292046847782274e+02 7.000000000000000000e+01
0.000000000000000000e+00 1.951327432308914354e+02 7.000000000000000000e+01
0.000000000000000000e+00 1.943362829297417704e+02 7.000000000000000000e+01
0.000000000000000000e+00 1.935398228523296780e+02 7.000000000000000000e+01
0.000000000000000000e+00 1.927433622862583888e+02 7.000000000000000000e+01
0.000000000000000000e+00 1.919469016620186324e+02 7.000000000000000000e+01
0.000000000000000000e+00 1.911504424375486337e+02 7.000000000000000000e+01
0.000000000000000000e+00 1.903539821625924731e+02 7.000000000000000000e+01
0.000000000000000000e+00 1.895575221766312097e+02 7.000000000000000000e+01
0.000000000000000000e+00 1.887610622149522328e+02 7.000000000000000000e+01
0.000000000000000000e+00 1.879646007811788877e+02 7.000000000000000000e+01
0.000000000000000000e+00 1.871681413899775919e+02 7.000000000000000000e+01
0.000000000000000000e+00 1.863716812706155963e+02 7.000000000000000000e+01
0.000000000000000000e+00 1.855752213806676423e+02 7.000000000000000000e+01
0.000000000000000000e+00 1.847787611056028823e+02 7.010112172848698719e+01
0.000000000000000000e+00 1.839823010276212756e+02 7.010112676979878188e+01
0.000000000000000000e+00 1.831858406201924083e+02 7.010113072239573739e+01
0.000000000000000000e+00 1.823893805248208935e+02 7.010113229322513462e+01
0.000000000000000000e+00 1.815929203568983894e+02 7.009456808657370175e+01
0.000000000000000000e+00 1.807964601804114011e+02 7.008802201881962901e+01
5.034630474186212012e+00 2.992878356654541676e+02 7.008964606028251865e+01
4.667975310407785905e+00 2.987166878495495439e+02 7.008346314378729858e+01
4.138146457848512760e+00 2.983996605819176580e+02 7.008786833963262097e+01
3.550037443783257807e+00 2.983996605819176580e+02 7.009888253902408906e+01
3.020209872585401634e+00 2.987166878495495439e+02 7.011022726788610271e+01
2.653554708807006612e+00 2.992878356654541676e+02 7.011024497702635472e+01
1.166994660486873947e+01 3.584227537369316678e+02 7.023866897406384169e+01
1.168552539702382909e+01 3.560890957204196638e+02 7.044710764993772045e+01
7.275698283912513942e-01 3.575368442107728697e+02 7.006122845313029757e+01
1.163788053531114919e+01 3.530133165705550482e+02 7.059092043435902042e+01
6.547590283724656901e-01 3.536039744999560526e+02 7.007551875589643942e+01
1.159600820679954225e+01 3.514542571519901344e+02 7.064535301239698128e+01
6.577932922171170205e-01 3.520314268631170194e+02 7.010207311221267901e+01
1.154880157069283442e+01 3.474922413282632760e+02 7.069022779275070434e+01
6.002947611778496340e-01 3.480395506841774136e+02 7.007084910940011468e+01
5.117936905603488462e-01 3.457607005136610496e+02 7.011079523790465373e+01
1.516314413738294675e+00 3.456615365739099275e+02 7.023786096591197747e+01
1.017158790872103813e+00 3.457172790406830245e+02 7.023016419957605194e+01
1.156266077582109908e+01 3.466859705340241362e+02 7.065626844186454036e+01
1.086154080987967063e+01 3.467588009246528600e+02 7.056625239398647409e+01
1.018962307072016849e+01 3.467987462967474244e+02 7.052116985678964056e+01
9.533348191786808812e+00 3.468200951662269631e+02 7.049387456153550602e+01
8.884424483325050304e+00 3.468320944670546737e+02 7.044652985960607339e+01
8.239192377116829391e+00 3.468398207338643147e+02 7.037143113012797357e+01
7.604845436179024531e+00 3.468441044351828282e+02 7.029044824435896999e+01
7.002628632869837055e+00 3.468485730469865302e+02 7.016107669489053933e+01
6.437621283861672872e+00 3.468589207328855082e+02 7.014183943669894461e+01
5.889977663467863778e+00 3.470020377087936936e+02 7.029170790299781402e+01
5.085934904116927058e+00 3.468806458085624058e+02 7.029676110427163849e+01
2.267612492921469602e+00 3.464724688795774910e+02 7.029511789831030910e+01
1.751642845490460898e+00 3.470168758825733448e+02 7.031207281699124678e+01
5.278581186939491632e-01 3.465266463601812461e+02 7.002615025886660760e+01
5.661015035254652439e+00 3.461137904715890841e+02 7.027361632932695557e+01
6.402396658401599439e+00 3.459736199407728350e+02 7.040861524067121024e+01
7.048785833972869952e+00 3.459333358329317321e+02 7.010003492681067883e+01
7.681177417382420103e+00 3.459253878452428808e+02 7.023614344091453177e+01
8.320950923937655119e+00 3.459249661169574779e+02 7.033612873803485854e+01
8.965682017830294726e+00 3.459237351068240969e+02 7.041584016659771805e+01
9.612807976218576300e+00 3.459192551663456356e+02 7.044432283169874154e+01
1.026363963183601413e+01 3.459084576081201021e+02 7.049127985965088783e+01
1.092194803134434267e+01 3.458884374601092873e+02 7.053942340201331263e+01
1.159544568913579532e+01 3.458522185913324734e+02 7.062648926537735861e+01
1.083715522067886283e+01 3.475856601915215265e+02 7.058498024332897103e+01
1.015325675223411395e+01 3.476492174450304447e+02 7.054538762566460264e+01
9.491287503146336846e+00 3.476875466321390604e+02 7.050763176781373431e+01
8.841910192741567087e+00 3.477124090518888693e+02 7.048502599570565508e+01
8.197459717000121771e+00 3.477373074154434107e+02 7.040419886131525118e+01
7.556685467175170423e+00 3.477786117949586924e+02 7.035024455868369841e+01
6.950165852214657214e+00 3.477892627629530011e+02 7.025553803199949243e+01
6.431442559090161382e+00 3.476848371709000958e+02 7.016883767555265194e+01
6.046768891011300440e+00 3.475851759371627736e+02 7.004986247051851933e+01
4.681129766754569488e+00 3.477074734104744493e+02 7.036691541665476279e+01
4.063332889928876313e+00 3.481724243932328591e+02 7.039345155235332641e+01
3.872927708231429289e+00 3.473888113209956714e+02 7.032666515565296095e+01
3.172996845688608403e+00 3.473803448215099365e+02 7.033340108135780611e+01
2.514421923004745540e+00 3.478607981068592494e+02 7.040621960150076575e+01
1.588531943419223547e+00 3.476431292758448421e+02 7.035966454921867808e+01
1.116999910064423007e+00 3.471443904643737710e+02 7.022003958995532003e+01
5.532290748274045766e-01 3.472766595590229031e+02 7.011194285654272562e+01
1.154974080861432739e+01 3.490900347359340685e+02 7.067993521343464636e+01
1.083327653965785409e+01 3.492155082286085417e+02 7.057238817082640026e+01
1.014196411403186282e+01 3.493145150492191533e+02 7.054753090920667091e+01
9.475552384897886427e+00 3.493787562170388128e+02 7.053070371293273411e+01
8.835481602493002740e+00 3.494131308161208267e+02 7.049383701214691200e+01
8.223659713972892860e+00 3.494346118585874592e+02 7.047497679691059602e+01
7.646406393865357920e+00 3.494818114079735096e+02 7.043585027001597609e+01
7.105471981871279930e+00 3.496545547477180662e+02 7.039405075089598540e+01
6.257383705038924049e+00 3.496107588846414274e+02 7.034737333524185487e+01
5.815147437849770284e+00 3.491614597508414590e+02 7.024433081224805164e+01
5.001564942720323259e+00 3.492255174843647296e+02 7.015473158848419644e+01
4.336702379544214558e+00 3.493056321251627878e+02 7.038563214035275450e+01
4.085825908311041310e+00 3.489451892367711139e+02 7.052038975846397761e+01
3.290370833202853174e+00 3.495310306565964424e+02 7.023183162769112187e+01
2.664409121403283454e+00 3.491281912180238010e+02 7.038220875677654931e+01
2.059172149225098725e+00 3.486786244103890908e+02 7.006292943617131641e+01
1.404711678063702340e+00 3.486022182509721006e+02 7.006444050002625090e+01
6.758745832271636500e-01 3.488125831503476206e+02 7.001441150360477650e+01
1.160263797079122972e+00 3.478474311428978467e+02 7.005132294005954918e+01
1.830508078222926160e+00 3.479466294046944199e+02 7.042882952788102102e+01
2.612620336855504100e+00 3.484429846167737423e+02 7.048882647847119642e+01
3.174138538714616598e+00 3.481738873329791772e+02 7.040027689003665046e+01
3.909873202079743759e+00 3.486456072182196522e+02 7.048850254758065148e+01
4.381671758610085732e+00 3.484027069627192645e+02 7.044787920193004993e+01
4.692767091179038452e+00 3.487406336311848918e+02 7.008320209559809655e+01
5.420119088128737772e+00 3.486451709391469080e+02 7.010310195838235359e+01
6.223190575522679957e+00 3.484506145504282131e+02 7.020657253139302156e+01
6.816430160717161790e+00 3.488321305338375282e+02 7.030399964222232256e+01
7.552353184211149539e+00 3.486777716445124611e+02 7.039739165982507529e+01
8.200103165611400513e+00 3.486082042388696891e+02 7.045408037283431213e+01
8.835559765539683141e+00 3.485716725814438632e+02 7.047682555640209046e+01
9.481245473690888659e+00 3.485343566939633320e+02 7.052473189219546157e+01
1.014618619991367687e+01 3.484770529830591954e+02 7.052227994546757373e+01
1.083604428032696632e+01 3.483918335805568631e+02 7.057448114736058642e+01
1.155268153307526013e+01 3.482819568121921634e+02 7.070478550788959637e+01
1.156219179754104154e+01 3.498819768720874777e+02 7.067378712295817422e+01
1.085450229159476265e+01 3.500129131821893793e+02 7.057906478602359357e+01
1.016846010549287094e+01 3.501187088859463756e+02 7.055213845575741516e+01
9.503393805850832265e+00 3.501929183777847925e+02 7.052122597442712504e+01
8.864637700263774178e+00 3.502381441652565854e+02 7.050456314366977040e+01
8.267832086234976785e+00 3.502654680180340847e+02 7.050389536048658101e+01
7.736173449566700278e+00 3.502649887504995831e+02 7.047701628827843479e+01
7.320356292153285871e+00 3.502056926649384536e+02 7.046430170516833869e+01
6.677970089660855812e+00 3.501339416648592646e+02 7.042017132361303311e+01
5.855456505427886427e+00 3.503568858574608953e+02 7.038505675214196344e+01
5.284662528242999535e+00 3.499578128540981652e+02 7.029973552583288665e+01
4.594976150260111858e+00 3.501038493991615042e+02 7.025904558557908786e+01
3.426265618694531057e+00 3.501561980990680922e+02 7.024479972885131929e+01
2.786522864813408162e+00 3.497829424076213627e+02 7.016848609546724447e+01
2.072217689851088451e+00 3.493945650697285714e+02 7.010770575545734573e+01
1.402177145173185924e+00 3.494998866635392574e+02 7.019875238384139493e+01
7.000564359620706778e-01 3.504254410098149037e+02 7.007488779250735433e+01
1.157980411027106804e+01 3.506672710013299366e+02 7.066324321948968645e+01
1.088331370314331181e+01 3.507999454598356692e+02 7.058455748425922138e+01
1.020459193483891092e+01 3.509113039654060344e+02 7.054476746961989875e+01
9.543186484776326139e+00 3.509978098527188877e+02 7.054431214183671273e+01
8.902302037869196383e+00 3.510636333932224602e+02 7.053729679267081565e+01
8.280485530266176397e+00 3.511019432559580764e+02 7.053559932052542081e+01
7.640071343000515824e+00 3.510954378868188996e+02 7.049498835924578088e+01
7.099558498913919991e+00 3.506267974652862449e+02 7.046931554597477998e+01
6.356598238496441233e+00 3.507424225642570264e+02 7.043653944849779691e+01
5.612479627354466594e+00 3.511513337031056494e+02 7.043892276647096651e+01
5.092458315110630629e+00 3.509525676939194341e+02 7.040846300407707758e+01
4.521664337925743737e+00 3.508843883422475756e+02 7.036433387081740420e+01
3.949227655399296655e+00 3.508392565846544926e+02 7.033214520031373240e+01
3.394732595488051619e+00 3.508209559666592554e+02 7.030620645591943685e+01
2.819526890931075780e+00 3.507039104134665877e+02 7.029176267259134647e+01
2.198007659177707573e+00 3.502853883645235555e+02 7.021999600427221822e+01
1.418054494539343846e+00 3.503450865059872967e+02 7.017802914005739012e+01
6.824594995690892452e-01 3.512335889101873363e+02 7.009074228660813333e+01
1.161731212178315786e+01 3.522367519647322069e+02 7.064041209812023681e+01
1.094947808147200874e+01 3.523639231523914077e+02 7.056345197666820468e+01
1.029462551371579337e+01 3.524713517888837373e+02 7.053799875065573133e+01
9.646734582559281179e+00 3.525636407363589342e+02 7.051323004578341624e+01
9.000954053662937326e+00 3.526430678677360220e+02 7.052452960474715837e+01
8.351357630455195746e+00 3.527151502055136802e+02 7.054561988825275876e+01
7.701949567376344064e+00 3.527320980701668418e+02 7.054421545136978011e+01
6.503332060247355884e+00 3.523510846282284206e+02 7.050735490787917570e+01
5.334558741972165841e+00 3.526193688894200591e+02 7.050693676348373629e+01
4.836529435794941989e+00 3.525101365405736260e+02 7.048607927207694956e+01
4.323077663555961792e+00 3.524159890397551749e+02 7.046932298318097310e+01
3.784239558846485441e+00 3.523195786491025387e+02 7.046300337076155529e+01
3.210771380376209461e+00 3.522100838690724345e+02 7.040636080590161328e+01
2.592223625757882566e+00 3.520988580641652561e+02 7.039574790291527506e+01
1.961443995015811570e+00 3.520170203740660213e+02 7.034053806502186035e+01
1.294500500892171058e+00 3.527717965380430769e+02 7.023253837324159576e+01
6.499718621040443400e-01 3.528270806655554566e+02 7.009979084835214280e+01
1.319120579233020729e+00 3.520010321791751267e+02 7.026143180169378866e+01
2.040715419318719359e+00 3.512234601239082394e+02 7.029581206485630673e+01
2.677361122645580682e+00 3.513812009071052671e+02 7.032726183213071636e+01
3.869377055734154247e+00 3.515882343552424345e+02 7.039380582575392964e+01
4.420712278381527582e+00 3.516622628991765396e+02 7.043644584760403404e+01
4.948742099505877512e+00 3.517640256599547115e+02 7.045310671357850651e+01
5.455890854915514510e+00 3.519143818208196990e+02 7.048186648430032619e+01
6.640524864858404541e+00 3.517030255507936545e+02 7.051256307891486586e+01
7.215603714634712951e+00 3.513833644431832681e+02 7.049935821069220765e+01
7.726272369867541734e+00 3.519406204708618020e+02 7.053484233289435679e+01
8.320777940145834606e+00 3.519135924867922540e+02 7.054675210262382734e+01
8.950619614327829154e+00 3.518618021683626580e+02 7.052167605419458596e+01
9.594694651172972044e+00 3.517851348489348879e+02 7.052309626481314808e+01
1.025046979915219580e+01 3.516874757415375257e+02 7.053234668351780101e+01
1.091910212762855004e+01 3.515707301874164159e+02 7.057903553532520391e+01
1.098589181033063156e+01 3.531224750430278618e+02 7.053929340657134617e+01
1.034284826942928603e+01 3.532166882118108902e+02 7.050391180135966351e+01
9.706610039034256232e+00 3.532969325602545609e+02 7.050855339933457344e+01
9.068620187576904357e+00 3.533730484384214492e+02 7.054056523366841702e+01
8.401364041266571547e+00 3.534669260229732686e+02 7.051768729881376885e+01
7.621489039674858468e+00 3.536274608026633359e+02 7.052576886576184734e+01
6.931802661691999212e+00 3.532578519435569433e+02 7.052496800201180349e+01
6.177845757560476159e+00 3.535898347555781811e+02 7.050007800474998021e+01
5.720140895298440498e+00 3.533605774859385633e+02 7.050488272265624801e+01
5.254364737446220346e+00 3.532800324907098570e+02 7.049740771473352652e+01
4.244728819476120130e+00 3.531589531624006213e+02 7.045268343806043276e+01
3.707392470351884128e+00 3.530431332166604648e+02 7.044828800064067309e+01
3.146499572866156225e+00 3.529085943624900210e+02 7.044551223183509592e+01
2.514124647155093317e+00 3.535116982995988906e+02 7.039143153297993649e+01
2.541778989340594652e+00 3.528145179802442044e+02 7.038983021390765771e+01
1.300553652244432978e+00 3.535472529840145626e+02 7.022844770130006964e+01
1.167043095948583620e+01 3.545551616880836718e+02 7.050975279753305358e+01
1.104231015369208357e+01 3.546333097750712113e+02 7.044926236831975075e+01
1.041899189050382013e+01 3.546953767536688247e+02 7.041411367995181081e+01
9.805387628247247633e+00 3.547377177176153396e+02 7.043043347495301987e+01
9.208283457007381045e+00 3.547680818804504952e+02 7.045946644352147814e+01
8.643637451919895298e+00 3.554293187050196821e+02 7.043007810197423169e+01
8.059188006072675492e+00 3.553247846968074555e+02 7.044421694365104258e+01
7.441703781433677278e+00 3.549997998831144059e+02 7.044429659948707467e+01
6.767721769025155432e+00 3.551473161884748606e+02 7.043609063731042852e+01
6.169242696980686169e+00 3.550538159825310913e+02 7.042900526477625078e+01
5.505209174643865389e+00 3.547663097021568888e+02 7.043808554402284017e+01
4.788994771164444053e+00 3.548017407996824204e+02 7.044312906011361974e+01
4.120596931828131915e+00 3.547576865061379294e+02 7.040237401900958503e+01
3.389367535218814176e+00 3.546541899406881839e+02 7.035590639416517433e+01
2.675468551826937436e+00 3.549007004445840607e+02 7.032392879204638803e+01
2.025527442396975353e+00 3.549950460126730718e+02 7.026688844250412558e+01
1.367718773842817370e+00 3.550809148238166131e+02 7.017417053764222601e+01
6.891546129931946929e-01 3.551763816997486174e+02 7.001549557550890768e+01
6.676623378807470255e-01 3.543933724422024625e+02 7.006367330108872693e+01
1.323140210010319118e+00 3.543228681874336985e+02 7.020179654395252555e+01
1.952637197970091609e+00 3.542675719743940590e+02 7.030045613529154025e+01
2.535929574454263147e+00 3.542227605314502625e+02 7.034832655481045549e+01
3.613949188734048690e+00 3.537938711327082046e+02 7.043424307367814663e+01
4.177673894959915479e+00 3.539392586245763255e+02 7.043378852955811453e+01
4.748982979435977470e+00 3.540049456512339816e+02 7.048141781723489885e+01
5.923294341772225913e+00 3.541665392290605041e+02 7.047108031175758924e+01
6.358834214175859145e+00 3.544349889071261828e+02 7.045879782582227335e+01
7.117155435306901090e+00 3.542764919831720931e+02 7.048934938282536677e+01
7.945599160195718547e+00 3.543954660491513664e+02 7.048974724017250537e+01
8.207799022305222181e+00 3.548478656767671851e+02 7.046923386048501925e+01
9.146906244947135889e+00 3.540772684271062190e+02 7.049358745305192997e+01
9.762638848523781832e+00 3.540170817297528743e+02 7.048588773368624061e+01
1.038666057913210850e+01 3.539499857262762248e+02 7.047981714425304745e+01
1.101964543287951592e+01 3.538670843495785334e+02 7.050102667665100853e+01
1.165841819616506214e+01 3.537734826501832686e+02 7.059198369476581547e+01
1.168142760319985030e+01 3.553208977639648083e+02 7.047903077789447934e+01
1.106851015066488308e+01 3.561230913044446424e+02 7.035191929607833572e+01
1.044818002231009224e+01 3.561459354310446201e+02 7.033691580641021801e+01
9.830507437542232552e+00 3.561509914956272382e+02 7.035061803329028862e+01
9.217372153565712267e+00 3.561361932210959367e+02 7.038232752125759362e+01
8.606770121118289651e+00 3.560895686453538360e+02 7.039915145986520884e+01
7.984296275106356866e+00 3.559970472031967006e+02 7.041292339277100609e+01
7.371191743803947816e+00 3.558841988232000517e+02 7.039268844328978503e+01
6.742523796683490112e+00 3.558505260768216658e+02 7.038066971833336538e+01
6.094366342351409394e+00 3.557756705508467121e+02 7.036806293035897397e+01
5.445067194993319148e+00 3.556689479213987397e+02 7.038021558809685985e+01
4.786288535843556069e+00 3.556293857553591238e+02 7.036387990783816804e+01
4.115185742547742720e+00 3.556000750955538479e+02 7.034110476468094930e+01
3.439827547973172361e+00 3.555923403226236132e+02 7.032214687469058845e+01
2.761168566378382039e+00 3.556747064537922256e+02 7.028748674003190899e+01
2.084792970835636083e+00 3.557664084046431867e+02 7.021386759515445419e+01
1.403867260887345925e+00 3.558637808631948474e+02 7.015725917977891868e+01
7.056406090342790538e-01 3.559648547533871579e+02 7.001421796352616411e+01
1.106771314386109673e+01 3.568746401622295252e+02 7.030039016686987452e+01
1.044608371502554789e+01 3.568804516215395779e+02 7.029393123080160422e+01
9.823140890733590425e+00 3.568733976172166535e+02 7.031219703800115894e+01
9.199727806800162000e+00 3.568509684733290896e+02 7.034644583220045888e+01
8.574877035352519883e+00 3.568071390522389379e+02 7.035669938698526948e+01
7.946318003952825393e+00 3.567449045084983936e+02 7.036726424939394064e+01
7.324751361826918661e+00 3.566809925107481831e+02 7.032753541259006624e+01
6.695582402390877874e+00 3.566287828817963259e+02 7.033123612589452023e+01
6.050725735078990475e+00 3.565727050723496632e+02 7.031664593479257519e+01
5.406885187373886126e+00 3.565188003453271222e+02 7.033932046912309488e+01
4.760667714233017378e+00 3.564830567815185418e+02 7.028471039943099186e+01
4.105612691372317435e+00 3.564640818957487340e+02 7.028823647624193427e+01
3.448930339507096932e+00 3.564686631426246208e+02 7.027220482089370535e+01
2.786053886533354618e+00 3.565079738989905422e+02 7.024136905359051752e+01
2.112822751917440289e+00 3.565724608807983032e+02 7.020305885894475750e+01
1.424982815742043663e+00 3.566572558800249340e+02 7.014517540874832946e+01
7.157133911638392521e-01 3.567532772988531065e+02 7.005922506647912940e+01
1.167867395750636206e+01 3.576394683805059458e+02 7.031348596379660876e+01
1.104331217832321776e+01 3.584180754954559802e+02 7.018078759837334246e+01
1.041295411548863115e+01 3.584078726212320589e+02 7.019384465242853821e+01
9.780251161253804781e+00 3.583916805809014932e+02 7.017489571335266874e+01
9.145827338630738268e+00 3.583701595024041353e+02 7.022340443144719302e+01
8.509854350049831595e+00 3.583447744465009350e+02 7.025342015892920244e+01
7.872880618199207703e+00 3.583173492364218191e+02 7.026997613579072777e+01
7.236110622814512894e+00 3.582901182358997403e+02 7.025094522669138541e+01
6.598323226461644708e+00 3.582648893415021689e+02 7.024823185401322689e+01
5.958378017476008814e+00 3.582434793950048970e+02 7.025720089001674751e+01
5.317790846418500195e+00 3.582280136818126834e+02 7.023481629390317948e+01
4.676061982334982936e+00 3.582184830820388015e+02 7.023144901504127802e+01
4.032518710479503277e+00 3.582142358694594577e+02 7.021626088459180437e+01
3.387193064887559224e+00 3.582156843736854057e+02 7.019962832817725484e+01
2.738284732762843010e+00 3.582247860945590219e+02 7.016191583653773023e+01
2.081743330653944124e+00 3.582454255059684556e+02 7.014134711329796801e+01
1.410139525042549691e+00 3.582829836980084224e+02 7.006756217017880317e+01
7.137272809614745306e-01 3.583433083314583882e+02 7.005635072098078808e+01
1.424841865985752909e+00 3.574628414412472353e+02 7.009934680084040792e+01
2.105330631689547705e+00 3.574052070308708267e+02 7.013448866330458031e+01
2.770366178657474698e+00 3.573666889306600183e+02 7.019700246307360203e+01
3.424544750306289131e+00 3.573452177437915225e+02 7.024037111540911837e+01
4.072812401720580233e+00 3.573403398086745710e+02 7.024497544981863939e+01
4.718826138395519010e+00 3.573494713968840415e+02 7.025158760884278308e+01
5.361118801504198395e+00 3.573703311164414345e+02 7.026717040111240919e+01
6.002533732039606384e+00 3.574012387134731057e+02 7.025843280665992552e+01
6.643621915412667001e+00 3.574394141905737001e+02 7.029622885015578504e+01
7.277513973046070284e+00 3.574814911220412910e+02 7.029099424838574350e+01
7.907620889042185297e+00 3.575251518457362749e+02 7.031589335084294135e+01
8.540434040359192736e+00 3.575667754212981322e+02 7.027815648278584604e+01
9.172637263639852989e+00 3.576011615918229722e+02 7.028194218651492520e+01
9.803102960833815160e+00 3.576248285533404783e+02 7.025761145974445299e+01
1.043153641881425919e+01 3.576383256519661700e+02 7.022791587598305796e+01
1.105715472575302094e+01 3.576432171271260927e+02 7.025058150911058874e+01
1.168441445667193257e+01 3.568612925778604108e+02 7.039345349808934316e+01
1.102067821018476224e+01 3.592087532059106252e+02 7.011979329315278164e+01
1.038156204203841249e+01 3.592015360763627427e+02 7.011933831171819520e+01
9.741287523167597939e+00 3.591914517690504454e+02 7.012917600707805832e+01
9.100294160539673882e+00 3.591792216652740990e+02 7.016041592877127187e+01
8.458597330491686606e+00 3.591657100847252195e+02 7.020103716142915573e+01
7.816539156523018228e+00 3.591521928065641305e+02 7.020604255063790333e+01
7.174623213672058242e+00 3.591393914055325354e+02 7.020642989103060927e+01
6.532629107774418742e+00 3.591275869377015511e+02 7.019612635662548428e+01
5.890086579188655413e+00 3.591179256758382508e+02 7.020343097346164996e+01
5.247231398416171366e+00 3.591113603155279748e+02 7.019467015364000417e+01
4.603657373886611559e+00 3.591076087967602462e+02 7.019517142350821359e+01
3.959237650819246390e+00 3.591061854828215019e+02 7.015144986551547390e+01
3.314020920948065996e+00 3.591068272147934408e+02 7.014865333615273357e+01
2.667381879899742181e+00 3.591097462340049447e+02 7.012871813067852145e+01
2.017034578899365549e+00 3.591173290938803575e+02 7.011418652938942842e+01
1.358850471448904917e+00 3.591328470618312281e+02 7.004683558528063259e+01
6.876528574079243672e-01 3.591618466368575469e+02 7.008433160045353816e+01
2.669335956066578142e+00 3.468776426538565829e+02 7.031760908198094739e+01
4.320371428235073807e+00 3.474528894307288738e+02 7.031230695953212262e+01
2.030235164257298663e+00 3.456245844742042550e+02 7.024425644578440142e+01
1.165738670022123458e+01 3.592137444111369859e+02 7.016431161513349934e+01
7.011353422784392109e-01 3.496172027239006184e+02 7.004300087896598370e+01
1.963852954487077751e+00 3.461555130991146143e+02 7.027749293814343901e+01
1.053134294124812298e+00 3.464458144366732881e+02 7.028951190209778588e+01
5.432225390833229639e+00 3.474914317175747556e+02 7.039092761041672475e+01
5.050287429387979365e+00 3.481250095548380727e+02 7.046188206536317011e+01
3.684508636736346876e+00 3.480969062683316224e+02 7.036336564828428664e+01
2.212726657819398479e+00 3.474160270510514010e+02 7.036091208535810892e+01
1.560517538674489835e+00 3.463290571880060043e+02 7.028817225920874989e+01
1.106120639056585198e+01 3.553747482361509356e+02 7.040149378442544048e+01
1.371692275608964451e+00 3.511931271741416936e+02 7.022895734269286550e+01
2.106191706564391808e+00 3.481658816047637401e+02 7.040377122015001987e+01
3.611055874645687780e+00 3.487250776886912718e+02 7.047456494950699835e+01
3.190264472196410850e+00 3.488688435102412200e+02 7.050870802648995550e+01
1.044101593060593380e+01 3.554154337875363581e+02 7.037194339474308435e+01
3.721297804491300987e+00 3.493167053402124793e+02 7.048253463742429403e+01
5.778076370582203580e+00 3.480434536986952594e+02 7.006014888150428988e+01
4.630373759512004916e+00 3.495397375433030334e+02 7.016448338469393775e+01
3.997873260381691995e+00 3.499651115698026729e+02 7.022148942554099449e+01
1.926406448323209730e+00 3.527754141912228647e+02 7.032029016547284073e+01
1.920494246727238785e+00 3.535236430006355022e+02 7.031948004687995990e+01
9.827473173697580222e+00 3.554393661264192588e+02 7.039745536652884539e+01
3.002237497296117663e+00 3.502103852537643434e+02 7.020301923627380347e+01
9.227195070218190409e+00 3.554468233703765350e+02 7.041806550041690116e+01
6.131655241060527395e+00 3.514243727747169714e+02 7.046428886086732746e+01
3.296753294440264881e+00 3.515047578165824689e+02 7.037802259082440060e+01
5.973800483537735850e+00 3.521143584141048564e+02 7.049789381530860055e+01
3.084840461293299807e+00 3.535895112354543244e+02 7.041075681034283207e+01
2.995808907047552427e+00 3.541445753621825361e+02 7.037717818826786242e+01
8.652724867116809548e+00 3.547989486922614901e+02 7.048671475200768555e+01
8.538682419296840465e+00 3.541590248702943882e+02 7.048421636548056313e+01
5.842692864314478207e+00 3.527670246053672827e+02 7.050121248139430463e+01
6.829005441701678336e+00 3.511014767254936260e+02 7.045869017798599998e+01
6.364590089678468843e+00 3.529824824229784213e+02 7.052732236163046764e+01
7.084589634795176671e+00 3.525803683087704599e+02 7.051791553642379995e+01
4.766048150839295339e+00 3.532372257705144420e+02 7.048317797856282141e+01
7.177908624355208822e+00 3.519133099329837364e+02 7.052702582022203615e+01
6.657542625889154131e+00 3.538678972440588382e+02 7.049516974365752731e+01
5.629731877525226302e+00 3.538417872527444956e+02 7.051110782244745678e+01
5.265516425892176500e+00 3.539752836817664274e+02 7.046486579849658938e+01
6.745792549668154336e+00 3.546329414880916602e+02 7.045219438694556402e+01
1.303610083641667927e+01 3.575215594463236926e+02 7.015959427406113491e+01
1.302468262479517946e+01 3.535503883518081807e+02 7.043831209286372541e+01
1.298825351959948726e+01 3.519851530524052237e+02 7.054034394828369159e+01
1.291401784568066446e+01 3.488883271275662992e+02 7.064249763041982533e+01
1.544575480556581049e+01 3.457591573026188030e+02 7.068607072823448334e+01
1.481638339102528512e+01 3.457513942381217475e+02 7.068323516520996463e+01
1.418477471944389912e+01 3.457527678053796194e+02 7.066069957502804755e+01
1.355338516066551158e+01 3.457605132069484739e+02 7.060914448879611882e+01
1.598342046457519672e+01 3.465674709477551119e+02 7.075065310112870520e+01
1.538134332966088103e+01 3.465218740616308537e+02 7.073850089844773947e+01
1.476789411213625058e+01 3.465023902109550704e+02 7.069939616113674674e+01
1.353258097663606030e+01 3.465254494764020592e+02 7.065774176978652577e+01
1.291137439706938572e+01 3.465489941555664473e+02 7.062329384371076912e+01
1.589224519267230384e+01 3.473521868861772646e+02 7.075318045164618752e+01
