1.229306113159110048e+01 6.157894812089823944e+01 5.476412487563846827e-06
1.229306113159110048e+01 6.236842074831697147e+01 5.293946175300601553e-06
1.229306113159110048e+01 6.315789508996548562e+01 5.233243938798516666e-06
1.229306113159110048e+01 6.394736689509985439e+01 5.306419068063764488e-06
1.229306113159110048e+01 6.473684260750307828e+01 5.352682299603300771e-06
1.229306113159110048e+01 6.552631552359919453e+01 5.586661359798909967e-06
1.229306113159110048e+01 6.631579013851977322e+01 5.805554528603161319e-06
1.229306113159110048e+01 6.710526427995588961e+01 6.066336605069889916e-06
1.229306113159110048e+01 6.789473714739719412e+01 6.168979722897721581e-06
1.229306113159110048e+01 6.868421123990462718e+01 6.577136269343771978e-06
1.229306113159110048e+01 6.947368353011961517e+01 6.724363900343033376e-06
1.229306113159110048e+01 7.026315760432967750e+01 6.958659914631314019e-06
1.229306113159110048e+01 7.105263145746631892e+01 7.139343969720404196e-06
1.229306113159110048e+01 7.184210591139040503e+01 7.244811577659654473e-06
1.229306113159110048e+01 7.263157962189031025e+01 7.347581668973858088e-06
1.229306113159110048e+01 7.342105340926700308e+01 7.510969600765165103e-06
1.229306113159110048e+01 7.421052638216883679e+01 7.745960899702664410e-06
1.229306113159110048e+01 7.500000010639068648e+01 7.764168667168104782e-06
1.229306113159110048e+01 7.578947333705920641e+01 7.861685375126870753e-06
1.229306113159110048e+01 7.657894767383778856e+01 8.095475602154675887e-06
1.229306113159110048e+01 7.736842214795500183e+01 8.139691451564959733e-06
1.229306113159110048e+01 7.815789472446824959e+01 8.201084775255225920e-06
1.229306113159110048e+01 7.894736794729512042e+01 8.153078213159386590e-06
1.229306113159110048e+01 7.973684195978871969e+01 8.076145633142627113e-06
1.229306113159110048e+01 8.052631567347420116e+01 8.217108947501464698e-06
1.229306113159110048e+01 8.131578961631230129e+01 8.330150267373620727e-06
1.229306113159110048e+01 8.210526317789341988e+01 8.356157061644542650e-06
1.229306113159110048e+01 8.289473704620083083e+01 8.473806470960532021e-06
1.229306113159110048e+01 8.368421047232754972e+01 8.605192725722125209e-06
1.229306113159110048e+01 8.447368445100589440e+01 8.730849349982944981e-06
1.229306113159110048e+01 8.526315774361262356e+01 9.203748602296867666e-06
1.229306113159110048e+01 8.605263164163862655e+01 9.882836488182385534e-06
1.229306113159110048e+01 8.684210507985865490e+01 1.012524987416899613e-05
1.229306113159110048e+01 8.763157902212792294e+01 9.819718859937336073e-06
1.229306113159110048e+01 8.842105263207000121e+01 9.478401056345929292e-06
1.229306113159110048e+01 8.921052633473587434e+01 9.330987681247457919e-06
1.164606202798347923e+01 8.999999999999998579e+01 9.710075574043303836e-06
1.099906164301445166e+01 8.999999999999998579e+01 8.754516842706398899e-06
1.035206125804544719e+01 8.999999999999998579e+01 8.402260868183119137e-06
9.705062154437831268e+00 8.999999999999998579e+01 8.261305203055636009e-06
9.058046393131760965e+00 8.999999999999998579e+01 8.205397780341482420e-06
8.411046008162758270e+00 8.999999999999998579e+01 8.175318709482533807e-06
7.764046904555142348e+00 8.999999999999998579e+01 7.977540659406962551e-06
7.117046519586111231e+00 8.999999999999998579e+01 7.949019058150500743e-06
6.470030758280036487e+00 8.999999999999998579e+01 7.740540964519240292e-06
5.823030373311033792e+00 8.999999999999998579e+01 7.559871776443989612e-06
5.176031269703418758e+00 8.999999999999998579e+01 7.379470434173747987e-06
4.529030884734416063e+00 8.999999999999998579e+01 7.268742959879707294e-06
3.882031781126800585e+00 8.999999999999998579e+01 7.184519665728584777e-06
3.235016019820728062e+00 8.999999999999998579e+01 6.943217898341072417e-06
2.588015634851694280e+00 8.999999999999998579e+01 6.732362904674693315e-06
1.941015249882691585e+00 8.999999999999998579e+01 6.385811171533801743e-06
1.294016146275076773e+00 8.999999999999998579e+01 6.286214446075895999e-06
6.470157613060734114e-01 8.999999999999998579e+01 5.617556648546079264e-06
1.229306113159110048e+01 2.992105273284320788e+02 5.225475898788846667e-06
1.229306113159110048e+01 2.984210518791016966e+02 5.447987836566762133e-06
1.229306113159110048e+01 2.976315792516830356e+02 5.671400378286856095e-06
1.229306113159110048e+01 2.968421049100344931e+02 5.847213933197330869e-06
1.229306113159110048e+01 2.960526331049000532e+02 5.743004326522177737e-06
1.229306113159110048e+01 2.952631573924969075e+02 5.962376845574719949e-06
1.229306113159110048e+01 2.944736844764008197e+02 5.992217451366939626e-06
1.229306113159110048e+01 2.936842098614802126e+02 5.898576490890516021e-06
1.229306113159110048e+01 2.928947357200440820e+02 5.973200046997393365e-06
1.229306113159110048e+01 2.921052628526027775e+02 5.952967657876379567e-06
1.229306113159110048e+01 2.913157887600953018e+02 5.851957449076304285e-06
1.229306113159110048e+01 2.905263164698803848e+02 5.742534649021608956e-06
1.229306113159110048e+01 2.897368423956703509e+02 5.581550609572968595e-06
1.229306113159110048e+01 2.889473685425336953e+02 5.737527254723400539e-06
1.229306113159110048e+01 2.881578940886096234e+02 5.635217681625927633e-06
1.229306113159110048e+01 2.873684203781097040e+02 5.631794598887579683e-06
1.229306113159110048e+01 2.865789465907329827e+02 5.554338002363625226e-06
1.229306113159110048e+01 2.857894736178312201e+02 5.298336219093659759e-06
1.229306113159110048e+01 2.849999998936092993e+02 5.140814947226225651e-06
1.229306113159110048e+01 2.842105266629408220e+02 5.024377072451624801e-06
1.229306113159110048e+01 2.834210523261621688e+02 5.248236778638583435e-06
1.229306113159110048e+01 2.826315778520449840e+02 5.553358398679633109e-06
1.229306113159110048e+01 2.818421052755317078e+02 5.701778406460813030e-06
1.229306113159110048e+01 2.810526320527048938e+02 6.156408636586737636e-06
1.229306113159110048e+01 2.802631580402112945e+02 6.163063590837721274e-06
1.229306113159110048e+01 2.794736843265258130e+02 6.366464821949605380e-06
1.229306113159110048e+01 2.786842103836876845e+02 6.502831004980173019e-06
1.229306113159110048e+01 2.778947368221064949e+02 6.448702056406119715e-06
1.229306113159110048e+01 2.771052629537991834e+02 6.456049101705125096e-06
1.229306113159110048e+01 2.763157895276724503e+02 6.356036706477859314e-06
1.229306113159110048e+01 2.755263155489940914e+02 6.273833925771575971e-06
1.229306113159110048e+01 2.747368422563873764e+02 6.003391410816294921e-06
1.229306113159110048e+01 2.739473683583613024e+02 5.799807978707863603e-06
1.229306113159110048e+01 2.731578949201413025e+02 5.536905069732905369e-06
1.229306113159110048e+01 2.723684209778720628e+02 5.151347343153569215e-06
1.229306113159110048e+01 2.715789473679300272e+02 5.117125630784948509e-06
1.229306113159110048e+01 2.707894736652640972e+02 5.462475616724129592e-06
1.293500910847755847e+01 2.700000000000000000e+02 5.500103046010885546e-06
1.357695708536404489e+01 2.700000000000000000e+02 5.437163820482557903e-06
1.421890506225053130e+01 2.700000000000000000e+02 6.437426656385409844e-06
1.486085175777560607e+01 2.700000000000000000e+02 5.883540196232402326e-06
1.550279973466209427e+01 2.700000000000000000e+02 5.470299131518608924e-06
1.229306113159110048e+01 2.692035398195886273e+02 6.216635546300232412e-06
1.229306113159110048e+01 2.684070796431016674e+02 6.531438905528330704e-06
1.229306113159110048e+01 2.676106194751790781e+02 7.008971172252299958e-06
1.229306113159110048e+01 2.668141593798076201e+02 7.791970844122573088e-06
1.229306113159110048e+01 2.660176989723786960e+02 7.611841954496077604e-06
1.229306113159110048e+01 2.652212388943971177e+02 7.120625318524197139e-06
1.229306113159110048e+01 2.644247786193323577e+02 6.944009057242864735e-06
1.229306113159110048e+01 2.636283187293843753e+02 6.825277557743972239e-06
1.229306113159110048e+01 2.628318586100223797e+02 6.763675706596733759e-06
1.229306113159110048e+01 2.620353986198661005e+02 6.876479004902678569e-06
1.229306113159110048e+01 2.612389377850477672e+02 7.015134010424456990e-06
1.229306113159110048e+01 2.604424778233687903e+02 7.042598715316073543e-06
1.229306113159110048e+01 2.596460178374074417e+02 6.971620124894253374e-06
1.229306113159110048e+01 2.588495575624512526e+02 7.056687007183545803e-06
1.229306113159110048e+01 2.580530983379813392e+02 7.159543552467312556e-06
1.229306113159110048e+01 2.572566377137416680e+02 7.167711045617371972e-06
1.229306113159110048e+01 2.564601771476702652e+02 7.084786677832201583e-06
1.229306113159110048e+01 2.556637170702582011e+02 7.119388698237311793e-06
1.229306113159110048e+01 2.548672567691085646e+02 7.075956861337895627e-06
1.229306113159110048e+01 2.540707953152218010e+02 6.823673464877665763e-06
1.229306113159110048e+01 2.532743357826379906e+02 6.700138328587080796e-06
1.229306113159110048e+01 2.524778750528269313e+02 6.629874871726424610e-06
1.229306113159110048e+01 2.516814164187097731e+02 6.588834854151853457e-06
1.229306113159110048e+01 2.508849553359679589e+02 6.407329592854648863e-06
1.229306113159110048e+01 2.500884957057443216e+02 6.395134371902869609e-06
1.229306113159110048e+01 2.492920357422066786e+02 6.338134389772308181e-06
1.229306113159110048e+01 2.484955746038096720e+02 6.246144932304865100e-06
1.229306113159110048e+01 2.476991157054704047e+02 6.236989936205367882e-06
1.229306113159110048e+01 2.469026549967339577e+02 6.268473120539112016e-06
1.229306113159110048e+01 2.461061945753463931e+02 6.321257262337176837e-06
1.229306113159110048e+01 2.453097354150016827e+02 6.291153955855746325e-06
1.229306113159110048e+01 2.445132757602295897e+02 6.344096533346668543e-06
1.229306113159110048e+01 2.437168159647070809e+02 6.374165557638697773e-06
1.229306113159110048e+01 2.429203541736176817e+02 6.636908664760821108e-06
1.229306113159110048e+01 2.421238950367728933e+02 6.822781349036154889e-06
1.229306113159110048e+01 2.413274322946253676e+02 7.091635978380985111e-06
1.229306113159110048e+01 2.405309729627819593e+02 7.383124487693008560e-06
1.229306113159110048e+01 2.397345133940177675e+02 7.555049559695614346e-06
1.229306113159110048e+01 2.389380534519567902e+02 7.858075880365242251e-06
1.229306113159110048e+01 2.381415924354594722e+02 7.974948415031336461e-06
1.229306113159110048e+01 2.373451330200340124e+02 8.109875923379911288e-06
1.229306113159110048e+01 2.365486722448804926e+02 8.157644693119203648e-06
1.229306113159110048e+01 2.357522131324427903e+02 8.294537847414318248e-06
1.229306113159110048e+01 2.349557534173832778e+02 8.459975092547231736e-06
1.229306113159110048e+01 2.341592919530772008e+02 8.571190522702953825e-06
1.229306113159110048e+01 2.333628320779596663e+02 8.621861466226218959e-06
1.229306113159110048e+01 2.325663705771988816e+02 8.842545400329973525e-06
1.229306113159110048e+01 2.317699118962098055e+02 9.117115523911791165e-06
1.229306113159110048e+01 2.309734516696036337e+02 9.179026610010572966e-06
1.229306113159110048e+01 2.301769914626933655e+02 9.206100866147104431e-06
1.229306113159110048e+01 2.293805322768739074e+02 9.315446140590182778e-06
1.229306113159110048e+01 2.285840705252784346e+02 9.149217587306848650e-06
1.229306113159110048e+01 2.277876106945566903e+02 9.250102257704109472e-06
1.229306113159110048e+01 2.269911515643165671e+02 9.007984150266980846e-06
1.229306113159110048e+01 2.261946892032682399e+02 8.803632775464115471e-06
1.229306113159110048e+01 2.253982293195803095e+02 8.609550401845602821e-06
1.229306113159110048e+01 2.246017706804196905e+02 8.323984686710342139e-06
1.229306113159110048e+01 2.238053107967317601e+02 7.973515384276988122e-06
1.229306113159110048e+01 2.230088484356832907e+02 7.726866500275528495e-06
1.229306113159110048e+01 2.222123893054432813e+02 7.547149729860590130e-06
1.229306113159110048e+01 2.214159294747215938e+02 7.282453066088791020e-06
1.229306113159110048e+01 2.206194677231260926e+02 6.897476688726673546e-06
1.229306113159110048e+01 2.198230085373066061e+02 6.772456135971521140e-06
1.229306113159110048e+01 2.190265483303963947e+02 6.677178387717780641e-06
1.229306113159110048e+01 2.182300881037901661e+02 6.429039215086752519e-06
1.229306113159110048e+01 2.174336294228010331e+02 6.290118929019993874e-06
1.229306113159110048e+01 2.166371679220403905e+02 6.118613883249753407e-06
1.229306113159110048e+01 2.158407080469227992e+02 6.039563137313315114e-06
1.229306113159110048e+01 2.150442465826166938e+02 6.107808184516725072e-06
1.229306113159110048e+01 2.142477868675572665e+02 5.902046392900530841e-06
1.229306113159110048e+01 2.134513277551193653e+02 5.881960176212500376e-06
1.229306113159110048e+01 2.126548669799660445e+02 5.790925071378564331e-06
1.229306113159110048e+01 2.118584075645404710e+02 5.796694301195687791e-06
1.229306113159110048e+01 2.110619465480432382e+02 5.821793663278199806e-06
1.229306113159110048e+01 2.102654866059822041e+02 5.623350395531713890e-06
1.229306113159110048e+01 2.094690270372180123e+02 5.828273950253812905e-06
1.229306113159110048e+01 2.086725677053744903e+02 5.859495897545832496e-06
1.229306113159110048e+01 2.078761049632269646e+02 5.827645239141888398e-06
1.229306113159110048e+01 2.070796458263822331e+02 6.049839916765532742e-06
1.229306113159110048e+01 2.062831840352928907e+02 5.576190428356668292e-06
1.229306113159110048e+01 2.054867242397704388e+02 5.621735347040656207e-06
1.229306113159110048e+01 2.046902645849982321e+02 6.476067516974872278e-06
1.229306113159110048e+01 2.038938054246536069e+02 7.168144502473705606e-06
1.229306113159110048e+01 2.030973450032660423e+02 7.772210700055955158e-06
1.229306113159110048e+01 2.023008842945295953e+02 8.294926131949637447e-06
1.229306113159110048e+01 2.015044253961902712e+02 8.625459760587587154e-06
1.229306113159110048e+01 2.007079642577932930e+02 8.804528163880697352e-06
1.229306113159110048e+01 1.999115042942556499e+02 9.049625288976844106e-06
1.229306113159110048e+01 1.991150446640320411e+02 9.188257996279748161e-06
1.229306113159110048e+01 1.983185835812901701e+02 9.112823644955614128e-06
1.229306113159110048e+01 1.975221249471728697e+02 9.161714199142881155e-06
1.229306113159110048e+01 1.967256642173620378e+02 9.207529077263538905e-06
1.229306113159110048e+01 1.959292046847782274e+02 9.316242913732592840e-06
1.229306113159110048e+01 1.951327432308914354e+02 9.464934519422047896e-06
1.229306113159110048e+01 1.943362829297417704e+02 9.314795946857762804e-06
1.229306113159110048e+01 1.935398228523296780e+02 9.394801412342541677e-06
1.229306113159110048e+01 1.927433622862583888e+02 9.394685993874317078e-06
1.229306113159110048e+01 1.919469016620186324e+02 9.371912310115088039e-06
1.229306113159110048e+01 1.911504424375486337e+02 9.333333214242777069e-06
1.229306113159110048e+01 1.903539821625924731e+02 9.391509495073250589e-06
1.229306113159110048e+01 1.895575221766312097e+02 9.333646329129556774e-06
1.229306113159110048e+01 1.887610622149522328e+02 9.214595962988607949e-06
1.229306113159110048e+01 1.879646013801336721e+02 9.339500921901993909e-06
1.229306113159110048e+01 1.871681413899775919e+02 9.358484605996008476e-06
1.229306113159110048e+01 1.863716812706155963e+02 9.200839153357341288e-06
1.229306113159110048e+01 1.855752213806676423e+02 9.269169247225037231e-06
1.229306113159110048e+01 1.847787611056028823e+02 9.324959184064365015e-06
1.229306113159110048e+01 1.839823010276212756e+02 9.129726149978766801e-06
1.229306113159110048e+01 1.831858406201924083e+02 8.948385229388729092e-06
1.229306113159110048e+01 1.823893805248208935e+02 8.736915551297114938e-06
1.229306113159110048e+01 1.815929203568983894e+02 8.424930267660558014e-06
1.229306113159110048e+01 1.807964601804114011e+02 8.080718282765076178e-06
1.293500910847755847e+01 1.800000000000000000e+02 8.126421738057625031e-06
1.357695708536404489e+01 1.800000000000000000e+02 8.393383688980307744e-06
1.421890506225053130e+01 1.800000000000000000e+02 8.561429630106139166e-06
1.486085175777560607e+01 1.800000000000000000e+02 8.736197353474185485e-06
1.550279973466209427e+01 1.800000000000000000e+02 9.046912874708081057e-06
1.229306113159110048e+01 9.079646018041135846e+01 9.164176437971635134e-06
1.229306113159110048e+01 9.159292035689830414e+01 9.180486403855916988e-06
1.229306113159110048e+01 9.238938052482092189e+01 9.141836929864754463e-06
1.229306113159110048e+01 9.318584062019239411e+01 9.255132078050167451e-06
1.229306113159110048e+01 9.398230102762128979e+01 9.344252880499117351e-06
1.229306113159110048e+01 9.477876110560288225e+01 9.420093132597619749e-06
1.229306113159110048e+01 9.557522138066761386e+01 9.628260474118304434e-06
1.229306113159110048e+01 9.637168127061559630e+01 9.790657938016513557e-06
1.229306113159110048e+01 9.716814138997760608e+01 9.989487514678944394e-06
1.229306113159110048e+01 9.796460138013375740e+01 1.026982734429157288e-05
1.229306113159110048e+01 9.876106221495224702e+01 1.037314527068412389e-05
1.229306113159110048e+01 9.955752217663119552e+01 1.043225105060347216e-05
1.229306113159110048e+01 1.003539821625925441e+02 1.096907295120642062e-05
1.229306113159110048e+01 1.011504424375486337e+02 1.137231295051903565e-05
1.229306113159110048e+01 1.019469016620186466e+02 1.176122097487289901e-05
1.229306113159110048e+01 1.027433622862582752e+02 1.206839691670710117e-05
1.229306113159110048e+01 1.035398228523297206e+02 1.269892293068484693e-05
1.229306113159110048e+01 1.043362829297417989e+02 1.314738449534671248e-05
1.229306113159110048e+01 1.051327432308914354e+02 1.352590500827487905e-05
1.229306113159110048e+01 1.059292046847781990e+02 1.373110018771313447e-05
1.229306113159110048e+01 1.067256642173620378e+02 1.377021255747621338e-05
1.229306113159110048e+01 1.075221249471729834e+02 1.392685591931880064e-05
1.229306113159110048e+01 1.083185835812902269e+02 1.390061429409473886e-05
1.229306113159110048e+01 1.091150446640320411e+02 1.376995789841070747e-05
1.229306113159110048e+01 1.099115042942556357e+02 1.367042225400038377e-05
1.229306113159110048e+01 1.107079642577933214e+02 1.325421814677965111e-05
1.229306113159110048e+01 1.115044253961902427e+02 1.283470956809265534e-05
1.229306113159110048e+01 1.123008842945295811e+02 1.261676700522431011e-05
1.229306113159110048e+01 1.130973450032659997e+02 1.211230252232168755e-05
1.229306113159110048e+01 1.138938054246536069e+02 1.173091214964811204e-05
1.229306113159110048e+01 1.146902645849982036e+02 1.127477446099579917e-05
1.229306113159110048e+01 1.154867242397704246e+02 1.097234234046449998e-05
1.229306113159110048e+01 1.162831840352929191e+02 1.046289900997684024e-05
1.229306113159110048e+01 1.170796458263822615e+02 9.979806372871442288e-06
1.229306113159110048e+01 1.178761049632269646e+02 9.616244384469064402e-06
1.229306113159110048e+01 1.186725677053745613e+02 9.014648040032760524e-06
1.229306113159110048e+01 1.194690270372179981e+02 8.554971150731280810e-06
1.229306113159110048e+01 1.202654866059822041e+02 8.139844170733481730e-06
1.229306113159110048e+01 1.210619465480432382e+02 7.648615142869422570e-06
1.229306113159110048e+01 1.218584075645404852e+02 7.238282469280332804e-06
1.229306113159110048e+01 1.226548669799660445e+02 7.087037008678816086e-06
1.229306113159110048e+01 1.234513277551193937e+02 6.755274857481848346e-06
1.229306113159110048e+01 1.242477868675572807e+02 6.527953987355551466e-06
1.229306113159110048e+01 1.250442465826166796e+02 6.247180733825821097e-06
1.229306113159110048e+01 1.258407080469227139e+02 6.331092930687447509e-06
1.229306113159110048e+01 1.266371679220403195e+02 6.153512619474204375e-06
1.229306113159110048e+01 1.274336294228010615e+02 5.944026824820167678e-06
1.229306113159110048e+01 1.282300881037901945e+02 5.829472432995113572e-06
1.229306113159110048e+01 1.290265483303963663e+02 5.733346991912952983e-06
1.229306113159110048e+01 1.298230085373066061e+02 5.653495548982876390e-06
1.229306113159110048e+01 1.306194677231260926e+02 5.636643596687192452e-06
1.229306113159110048e+01 1.314159294747215654e+02 5.632463657640501383e-06
1.229306113159110048e+01 1.322123893054432813e+02 5.735140426786825262e-06
1.229306113159110048e+01 1.330088484356833476e+02 5.541939683864132314e-06
1.229306113159110048e+01 1.338053107967317601e+02 5.490949260900129830e-06
1.229306113159110048e+01 1.346017706804196905e+02 5.466795121409754193e-06
1.229306113159110048e+01 1.353982293195803095e+02 5.254065713202453418e-06
1.229306113159110048e+01 1.361946892032682115e+02 5.151182038813577026e-06
1.229306113159110048e+01 1.369911515643165956e+02 5.129631967656553452e-06
1.229306113159110048e+01 1.377876106945566903e+02 5.310589687062889647e-06
1.229306113159110048e+01 1.385840705252784062e+02 5.501127306968417316e-06
1.229306113159110048e+01 1.393805322768739074e+02 5.675116966662185811e-06
1.229306113159110048e+01 1.401769914626933655e+02 5.741461404371361445e-06
1.229306113159110048e+01 1.409734516696036053e+02 5.810876661046613562e-06
1.229306113159110048e+01 1.417699118962098055e+02 5.767947154935681750e-06
1.229306113159110048e+01 1.425663705771989100e+02 5.773008164694028311e-06
1.229306113159110048e+01 1.433628320779596663e+02 5.618504454687537419e-06
1.229306113159110048e+01 1.441592919530772292e+02 5.245668985386509669e-06
1.229306113159110048e+01 1.449557534173832778e+02 5.061944811169701150e-06
1.229306113159110048e+01 1.457522131324426766e+02 5.752688137951343840e-06
1.229306113159110048e+01 1.465486722448805494e+02 6.182063267157504416e-06
1.229306113159110048e+01 1.473451330200339555e+02 5.320540576632780987e-06
1.229306113159110048e+01 1.481415924354594722e+02 5.369167027399980939e-06
1.229306113159110048e+01 1.489380534519567334e+02 5.909500091907171793e-06
1.229306113159110048e+01 1.497345133940177959e+02 6.350626351804313901e-06
1.229306113159110048e+01 1.505309729627819593e+02 6.515216755975612342e-06
1.229306113159110048e+01 1.513274322946254244e+02 6.892132791511588936e-06
1.229306113159110048e+01 1.521238950367730070e+02 7.155785908448180671e-06
1.229306113159110048e+01 1.529203541736177101e+02 7.308094502376070057e-06
1.229306113159110048e+01 1.537168159647070809e+02 7.546835187751251471e-06
1.229306113159110048e+01 1.545132757602295328e+02 7.626059684459225267e-06
1.229306113159110048e+01 1.553097354150017679e+02 7.767124234714194633e-06
1.229306113159110048e+01 1.561061945753463647e+02 7.891208811354696555e-06
1.229306113159110048e+01 1.569026549967339577e+02 7.868397881722640399e-06
1.229306113159110048e+01 1.576991157054703478e+02 7.893021384345986837e-06
1.229306113159110048e+01 1.584955746038097288e+02 7.799241773072200694e-06
1.229306113159110048e+01 1.592920357422066502e+02 7.777689468069490160e-06
1.229306113159110048e+01 1.600884957057443501e+02 7.686535332553958555e-06
1.229306113159110048e+01 1.608849553359679589e+02 7.603930321014259306e-06
1.229306113159110048e+01 1.616814164187097731e+02 7.471231686742463865e-06
1.229306113159110048e+01 1.624778750528269882e+02 7.480013018311656414e-06
1.229306113159110048e+01 1.632743357826379338e+02 7.437205441335793787e-06
1.229306113159110048e+01 1.640707953152217726e+02 7.222195509771086894e-06
1.229306113159110048e+01 1.648672567691085078e+02 6.939576604379968666e-06
1.229306113159110048e+01 1.656637170702582011e+02 6.810628260560761309e-06
1.229306113159110048e+01 1.664601771476702652e+02 6.859295043844748959e-06
1.229306113159110048e+01 1.672566377137416680e+02 6.893822201428520244e-06
1.229306113159110048e+01 1.680530983379813108e+02 6.783111171964088118e-06
1.229306113159110048e+01 1.688495575624513094e+02 6.768458042947116373e-06
1.229306113159110048e+01 1.696460178374074417e+02 6.687724477851872153e-06
1.229306113159110048e+01 1.704424778233687903e+02 6.627897323197704505e-06
1.229306113159110048e+01 1.712389377850477103e+02 6.573953426371237078e-06
1.229306113159110048e+01 1.720353986198661858e+02 6.500350887642799630e-06
1.229306113159110048e+01 1.728318586100223513e+02 6.450011410154248687e-06
1.229306113159110048e+01 1.736283187293843469e+02 6.458973451719929570e-06
1.229306113159110048e+01 1.744247786193323577e+02 6.400781237108062134e-06
1.229306113159110048e+01 1.752212388943971177e+02 6.479667322386968510e-06
1.229306113159110048e+01 1.760176989723786676e+02 6.595826333468137469e-06
1.229306113159110048e+01 1.768141593798075917e+02 6.752589362417325192e-06
1.229306113159110048e+01 1.776106194751790781e+02 6.943286454153690177e-06
1.229306113159110048e+01 1.784070796431016674e+02 7.154291524676920367e-06
1.229306113159110048e+01 1.792035398195885989e+02 7.373890644885188581e-06
1.164606202798347923e+01 1.800000000000000000e+02 7.301376140167296992e-06
1.099906164301445166e+01 1.800000000000000000e+02 7.416497022672685246e-06
1.035206125804544719e+01 1.800000000000000000e+02 7.140988462110467258e-06
9.705062154437831268e+00 1.800000000000000000e+02 6.842594149036448025e-06
9.058046393131760965e+00 1.800000000000000000e+02 6.584539088243413273e-06
8.411046008162758270e+00 1.800000000000000000e+02 6.379034182545049551e-06
7.764046904555142348e+00 1.800000000000000000e+02 6.099878262904269458e-06
7.117046519586111231e+00 1.800000000000000000e+02 5.852852354775058088e-06
6.470030758280036487e+00 1.800000000000000000e+02 5.649226380974522027e-06
5.823030373311033792e+00 1.800000000000000000e+02 5.437732016770808170e-06
5.176031269703418758e+00 1.800000000000000000e+02 5.022081747908557734e-06
4.529030884734416063e+00 1.800000000000000000e+02 5.191325164073497021e-06
3.882031781126800585e+00 1.800000000000000000e+02 5.193635697433749398e-06
3.235016019820728062e+00 1.800000000000000000e+02 5.368578378307126378e-06
2.588015634851694280e+00 1.800000000000000000e+02 5.197172823153579957e-06
1.941015249882691585e+00 1.800000000000000000e+02 5.006994385529325231e-06
1.294016146275076773e+00 1.800000000000000000e+02 5.263457745941656708e-06
6.470157613060734114e-01 1.800000000000000000e+02 5.259628789712884676e-06
2.562722841764919934e+00 1.195755509350593968e+02 5.452273341931816757e-06
2.562722841764919934e+00 1.204244478166129966e+02 5.140485789385456920e-06
2.734374017706307392e+00 1.220694013256472346e+02 5.487608155406700990e-06
3.203294636485358726e+00 1.226524223262398863e+02 5.636197557799328750e-06
3.844084262647379902e+00 1.228659841676097955e+02 5.615901958354168613e-06
4.484890546507831033e+00 1.226524223262398863e+02 5.480403326609817632e-06
4.953811165286881923e+00 1.220694013256472346e+02 5.279478829647163861e-06
5.125445683529839869e+00 1.204244478166129824e+02 5.043274507901029199e-06
5.125445683529839869e+00 1.195755509350593968e+02 5.317927744036761438e-06
4.953811165286881923e+00 1.179305990429559614e+02 6.045119461368029165e-06
4.484890546507831033e+00 1.173475755890361256e+02 6.008968156843337006e-06
3.844084262647379902e+00 1.171340165429103450e+02 6.184934980704925497e-06
3.203294636485358726e+00 1.173475755890361256e+02 6.212619798037733262e-06
2.734374017706307392e+00 1.179305990429559614e+02 6.093752019275193077e-06
1.293500910847755847e+01 8.999999999999998579e+01 9.434569459852585796e-06
1.357695708536404489e+01 8.999999999999998579e+01 9.630760319791304029e-06
1.421890506225053130e+01 8.999999999999998579e+01 9.858092924460641780e-06
1.486085175777560607e+01 8.999999999999998579e+01 1.007717822903702335e-05
1.550279973466209427e+01 8.999999999999998579e+01 1.025773896015449620e-05
1.164606202798347923e+01 2.700000000000000000e+02 5.833278832179876755e-06
1.099906164301445166e+01 2.700000000000000000e+02 5.621312873681957529e-06
1.035206125804544719e+01 2.700000000000000000e+02 5.658834994207761538e-06
9.705062154437831268e+00 2.700000000000000000e+02 5.744768020585480258e-06
9.058046393131760965e+00 2.700000000000000000e+02 5.801786932438564552e-06
8.411046008162758270e+00 2.700000000000000000e+02 5.807527138844972816e-06
7.764046904555142348e+00 2.700000000000000000e+02 6.017761222844193217e-06
7.117046519586111231e+00 2.700000000000000000e+02 5.973717471732053767e-06
6.470030758280036487e+00 2.700000000000000000e+02 5.971509692133581677e-06
5.823030373311033792e+00 2.700000000000000000e+02 5.960384221011489127e-06
5.176031269703418758e+00 2.700000000000000000e+02 5.854237793536082048e-06
4.529030884734416063e+00 2.700000000000000000e+02 5.710472971705492152e-06
3.882031781126800585e+00 2.700000000000000000e+02 5.441473391641067621e-06
3.235016019820728062e+00 2.700000000000000000e+02 5.252377500381836533e-06
2.588015634851694280e+00 2.700000000000000000e+02 5.733530821927985716e-06
1.941015249882691585e+00 2.700000000000000000e+02 5.591808938235848278e-06
1.294016146275076773e+00 2.700000000000000000e+02 5.463661846759236046e-06
6.470157613060734114e-01 2.700000000000000000e+02 5.557719441622687658e-06
0.000000000000000000e+00 2.692035398195886273e+02 5.000000000000000409e-06
0.000000000000000000e+00 2.684070796431016674e+02 5.000000000000000409e-06
0.000000000000000000e+00 2.676106194751790781e+02 5.000000000000000409e-06
0.000000000000000000e+00 2.668141593798076201e+02 5.000000000000000409e-06
0.000000000000000000e+00 2.660176989723786960e+02 5.000000000000000409e-06
0.000000000000000000e+00 2.652212388943971177e+02 5.000000000000000409e-06
0.000000000000000000e+00 2.644247786193323577e+02 5.000000000000000409e-06
0.000000000000000000e+00 2.636283187293843753e+02 5.000000000000000409e-06
0.000000000000000000e+00 2.628318586100223797e+02 5.000000000000000409e-06
0.000000000000000000e+00 2.620353992188210555e+02 5.000000000000000409e-06
0.000000000000000000e+00 2.612389377850477672e+02 5.000000000000000409e-06
0.000000000000000000e+00 2.604424778233687903e+02 5.000000000000000409e-06
0.000000000000000000e+00 2.596460178374074417e+02 5.000000000000000409e-06
0.000000000000000000e+00 2.588495575624512526e+02 5.000000000000000409e-06
0.000000000000000000e+00 2.580530983379813392e+02 5.000000000000000409e-06
0.000000000000000000e+00 2.572566377137416680e+02 5.000000000000000409e-06
0.000000000000000000e+00 2.564601771476702652e+02 5.000000000000000409e-06
0.000000000000000000e+00 2.556637170702582011e+02 5.000000000000000409e-06
0.000000000000000000e+00 2.548672567691085646e+02 5.000000000000000409e-06
0.000000000000000000e+00 2.540707953152218010e+02 5.000000000000000409e-06
0.000000000000000000e+00 2.532743357826379906e+02 5.000000000000000409e-06
0.000000000000000000e+00 2.524778750528269313e+02 5.000000000000000409e-06
0.000000000000000000e+00 2.516814164187097731e+02 5.000000000000000409e-06
0.000000000000000000e+00 2.508849553359679589e+02 5.000000000000000409e-06
0.000000000000000000e+00 2.500884969028692808e+02 5.000000000000000409e-06
0.000000000000000000e+00 2.492920357422066786e+02 5.000000000000000409e-06
0.000000000000000000e+00 2.484955746038096720e+02 5.000000000000000409e-06
0.000000000000000000e+00 2.476991157054704047e+02 5.000000000000000409e-06
0.000000000000000000e+00 2.469026549967339292e+02 5.000000000000000409e-06
0.000000000000000000e+00 2.461061945753463931e+02 5.000000000000000409e-06
0.000000000000000000e+00 2.453097354150016827e+02 5.000000000000000409e-06
0.000000000000000000e+00 2.445132757602295897e+02 5.000000000000000409e-06
0.000000000000000000e+00 2.437168159647070809e+02 5.000000000000000409e-06
0.000000000000000000e+00 2.429203541736176817e+02 5.000000000000000409e-06
0.000000000000000000e+00 2.421238950367728933e+02 5.000000000000000409e-06
0.000000000000000000e+00 2.413274322946253676e+02 5.000000000000000409e-06
0.000000000000000000e+00 2.405309729627819593e+02 5.000000000000000409e-06
0.000000000000000000e+00 2.397345133940177675e+02 5.000000000000000409e-06
0.000000000000000000e+00 2.389380534519567902e+02 5.000000000000000409e-06
0.000000000000000000e+00 2.381415924354594722e+02 5.000000000000000409e-06
0.000000000000000000e+00 2.373451330200339271e+02 5.000000000000000409e-06
0.000000000000000000e+00 2.365486722448804926e+02 5.000000000000000409e-06
0.000000000000000000e+00 2.357522131324427903e+02 5.000000000000000409e-06
0.000000000000000000e+00 2.349557534173832778e+02 5.000000000000000409e-06
0.000000000000000000e+00 2.341592919530772008e+02 5.000000000000000409e-06
0.000000000000000000e+00 2.333628320779596663e+02 5.000000000000000409e-06
0.000000000000000000e+00 2.325663705771988816e+02 5.000000000000000409e-06
0.000000000000000000e+00 2.317699118962098055e+02 5.000000000000000409e-06
0.000000000000000000e+00 2.309734516696036337e+02 5.000000000000000409e-06
0.000000000000000000e+00 2.301769914626933655e+02 5.000000000000000409e-06
0.000000000000000000e+00 2.293805322768739074e+02 5.000000000000000409e-06
0.000000000000000000e+00 2.285840705252784062e+02 5.000000000000000409e-06
0.000000000000000000e+00 2.277876106945566903e+02 5.000000000000000409e-06
0.000000000000000000e+00 2.269911515643165671e+02 5.000000000000000409e-06
0.000000000000000000e+00 2.261946874803456922e+02 5.000000000000000409e-06
0.000000000000000000e+00 2.253982293195803095e+02 5.000000000000000409e-06
0.000000000000000000e+00 2.246017706804196905e+02 5.000000000000000409e-06
0.000000000000000000e+00 2.238053125196542510e+02 5.000000000000000409e-06
0.000000000000000000e+00 2.230088484356834044e+02 5.000000000000000409e-06
0.000000000000000000e+00 2.222123893054432813e+02 5.000000000000000409e-06
0.000000000000000000e+00 2.214159294747215938e+02 5.000000000000000409e-06
0.000000000000000000e+00 2.206194677231260926e+02 5.000000000000000409e-06
0.000000000000000000e+00 2.198230085373066061e+02 5.000000000000000409e-06
0.000000000000000000e+00 2.190265483303963947e+02 5.000000000000000409e-06
0.000000000000000000e+00 2.182300881037901661e+02 5.000000000000000409e-06
0.000000000000000000e+00 2.174336294228010331e+02 5.000000000000000409e-06
0.000000000000000000e+00 2.166371679220403905e+02 5.000000000000000409e-06
0.000000000000000000e+00 2.158407080469227992e+02 5.000000000000000409e-06
0.000000000000000000e+00 2.150442465826166938e+02 5.000000000000000409e-06
0.000000000000000000e+00 2.142477868675572665e+02 5.000000000000000409e-06
0.000000000000000000e+00 2.134513277551194506e+02 5.000000000000000409e-06
0.000000000000000000e+00 2.126548669799660445e+02 5.000000000000000409e-06
0.000000000000000000e+00 2.118584075645404710e+02 5.000000000000000409e-06
0.000000000000000000e+00 2.110619465480432666e+02 5.000000000000000409e-06
0.000000000000000000e+00 2.102654866059822041e+02 5.000000000000000409e-06
0.000000000000000000e+00 2.094690270372180123e+02 5.000000000000000409e-06
0.000000000000000000e+00 2.086725677053744903e+02 5.000000000000000409e-06
0.000000000000000000e+00 2.078761049632269646e+02 5.000000000000000409e-06
0.000000000000000000e+00 2.070796458263822331e+02 5.000000000000000409e-06
0.000000000000000000e+00 2.062831840352928907e+02 5.000000000000000409e-06
0.000000000000000000e+00 2.054867242397704672e+02 5.000000000000000409e-06
0.000000000000000000e+00 2.046902645849982321e+02 5.000000000000000409e-06
0.000000000000000000e+00 2.038938054246536069e+02 5.000000000000000409e-06
0.000000000000000000e+00 2.030973450032660423e+02 5.000000000000000409e-06
0.000000000000000000e+00 2.023008842945295953e+02 5.000000000000000409e-06
0.000000000000000000e+00 2.015044253961902712e+02 5.000000000000000409e-06
0.000000000000000000e+00 2.007079642577932930e+02 5.000000000000000409e-06
0.000000000000000000e+00 1.999115030971306908e+02 5.000000000000000409e-06
0.000000000000000000e+00 1.991150446640320411e+02 5.000000000000000409e-06
0.000000000000000000e+00 1.983185835812901701e+02 5.000000000000000409e-06
0.000000000000000000e+00 1.975221249471728697e+02 5.000000000000000409e-06
0.000000000000000000e+00 1.967256642173620378e+02 5.000000000000000409e-06
0.000000000000000000e+00 1.959292046847782274e+02 5.000000000000000409e-06
0.000000000000000000e+00 1.951327432308914354e+02 5.000000000000000409e-06
0.000000000000000000e+00 1.943362829297417704e+02 5.000000000000000409e-06
0.000000000000000000e+00 1.935398228523296780e+02 5.000000000000000409e-06
0.000000000000000000e+00 1.927433622862583888e+02 5.000000000000000409e-06
0.000000000000000000e+00 1.919469016620186324e+02 5.000000000000000409e-06
0.000000000000000000e+00 1.911504424375486337e+02 5.000000000000000409e-06
0.000000000000000000e+00 1.903539821625924731e+02 5.000000000000000409e-06
0.000000000000000000e+00 1.895575221766312097e+02 5.000000000000000409e-06
0.000000000000000000e+00 1.887610622149522328e+02 5.000000000000000409e-06
0.000000000000000000e+00 1.879646007811788877e+02 5.000000000000000409e-06
0.000000000000000000e+00 1.871681413899775919e+02 5.000000000000000409e-06
0.000000000000000000e+00 1.863716812706155963e+02 5.000000000000000409e-06
0.000000000000000000e+00 1.855752213806676423e+02 5.000000000000000409e-06
0.000000000000000000e+00 1.847787611056028823e+02 5.532640112471488190e-06
0.000000000000000000e+00 1.839823010276212756e+02 5.532666666654465492e-06
0.000000000000000000e+00 1.831858406201924083e+02 5.532687486232200648e-06
0.000000000000000000e+00 1.823893805248208935e+02 5.532695760287236770e-06
0.000000000000000000e+00 1.815929203568983894e+02 5.498120008651866899e-06
0.000000000000000000e+00 1.807964601804114011e+02 5.463639800323308283e-06
5.034630474186212012e+00 2.992878356654541676e+02 5.472194140131327604e-06
4.667975310407785905e+00 2.987166878495495439e+02 5.439626764289451989e-06
4.138146457848512760e+00 2.983996605819176580e+02 5.462830323461341168e-06
3.550037443783257807e+00 2.983996605819176580e+02 5.520845593675099919e-06
3.020209872585401634e+00 2.987166878495495439e+02 5.580601867103505394e-06
2.653554708807006612e+00 2.992878356654541676e+02 5.580695146743765825e-06
1.166994660486873947e+01 3.584227537369316678e+02 6.257144938984879880e-06
1.168552539702382731e+01 3.560890957204196638e+02 7.355057340424469324e-06
7.275698283912515052e-01 3.575368442107728697e+02 5.322509619344309285e-06
1.163788053531114741e+01 3.530133165705550482e+02 8.112564740813261367e-06
6.547590283724656901e-01 3.536039744999560526e+02 5.397781161736793271e-06
1.159600820679954225e+01 3.514542571519901344e+02 8.399278337604512880e-06
6.577932922171169094e-01 3.520314268631170194e+02 5.537651351324285468e-06
1.154880157069283442e+01 3.474922413282632760e+02 8.635647992399485707e-06
6.002947611778496340e-01 3.480395506841774136e+02 5.373184657382887904e-06
5.117936905603488462e-01 3.457607005136610496e+02 5.583593544748735280e-06
1.516314413738294675e+00 3.456615365739099275e+02 6.252888904606053210e-06
1.017158790872103813e+00 3.457172790406830245e+02 6.212347603066081063e-06
1.156266077582110086e+01 3.466859705340241362e+02 8.456773355404011088e-06
1.086154080987967063e+01 3.467588009246528600e+02 7.982630373639395085e-06
1.018962307072016849e+01 3.467987462967474244e+02 7.745166397871702731e-06
9.533348191786808812e+00 3.468200951662269631e+02 7.601393448658558510e-06
8.884424483325050304e+00 3.468320944670546737e+02 7.352013936085581481e-06
8.239192377116829391e+00 3.468398207338643147e+02 6.956445186280951742e-06
7.604845436179022755e+00 3.468441044351828282e+02 6.529882725080352784e-06
7.002628632869837055e+00 3.468485730469865302e+02 5.848441874627101530e-06
6.437621283861672872e+00 3.468589207328855082e+02 5.747113154082807280e-06
5.889977663467863778e+00 3.470020377087936936e+02 6.536517745358472292e-06
5.085934904116927058e+00 3.468806458085624058e+02 6.563134553982125576e-06
2.267612492921469602e+00 3.464724688795774910e+02 6.554479268702177036e-06
1.751642845490460898e+00 3.470168758825733448e+02 6.643786185507121161e-06
5.278581186939491632e-01 3.465266463601812461e+02 5.137741680569283597e-06
5.661015035254652439e+00 3.461137904715890841e+02 6.441223707380550697e-06
6.402396658401600327e+00 3.459736199407728350e+02 7.152305651862791538e-06
7.048785833972869952e+00 3.459333358329317321e+02 5.526915584461886394e-06
7.681177417382419215e+00 3.459253878452428808e+02 6.243842157467728815e-06
8.320950923937655119e+00 3.459249661169574779e+02 6.770496326660646978e-06
8.965682017830294726e+00 3.459237351068240969e+02 7.190361620799165335e-06
9.612807976218576300e+00 3.459192551663456356e+02 7.340388822369885268e-06
1.026363963183601413e+01 3.459084576081201021e+02 7.587726333545600943e-06
1.092194803134434267e+01 3.458884374601092873e+02 7.841313591223831485e-06
1.159544568913579532e+01 3.458522185913324734e+02 8.299917018484477904e-06
1.083715522067886283e+01 3.475856601915215265e+02 8.081275876731447018e-06
1.015325675223411217e+01 3.476492174450304447e+02 7.872729042719374203e-06
9.491287503146336846e+00 3.476875466321390604e+02 7.673857003316567879e-06
8.841910192741567087e+00 3.477124090518888693e+02 7.554785255055248201e-06
8.197459717000121771e+00 3.477373074154434107e+02 7.129043185604832462e-06
7.556685467175169535e+00 3.477786117949586924e+02 6.844848816580683580e-06
6.950165852214657214e+00 3.477892627629530011e+02 6.345999600100461627e-06
6.431442559090159605e+00 3.476848371709000958e+02 5.889321413323759869e-06
6.046768891011300440e+00 3.475851759371627736e+02 5.262641395696752088e-06
4.681129766754569488e+00 3.477074734104744493e+02 6.932659495824032458e-06
4.063332889928876313e+00 3.481724243932328591e+02 7.072433711657976289e-06
3.872927708231428845e+00 3.473888113209956714e+02 6.720648646446936236e-06
3.172996845688608403e+00 3.473803448215099365e+02 6.756128896623731551e-06
2.514421923004744652e+00 3.478607981068592494e+02 7.139687062996887779e-06
1.588531943419223547e+00 3.476431292758448421e+02 6.894466884755591036e-06
1.116999910064423007e+00 3.471443904643737710e+02 6.159018083408885122e-06
5.532290748274045766e-01 3.472766595590229031e+02 5.589638414922564179e-06
1.154974080861432739e+01 3.490900347359340685e+02 8.581433723255223891e-06
1.083327653965785409e+01 3.492155082286085417e+02 8.014949450014155334e-06
1.014196411403186282e+01 3.493145150492191533e+02 7.884018394711138206e-06
9.475552384897886427e+00 3.493787562170388128e+02 7.795384232201915204e-06
8.835481602493000963e+00 3.494131308161208267e+02 7.601195664158007755e-06
8.223659713972892860e+00 3.494346118585874592e+02 7.501852948057177382e-06
7.646406393865359696e+00 3.494818114079735096e+02 7.295761161478876562e-06
7.105471981871279930e+00 3.496545547477180662e+02 7.075589879812237564e-06
6.257383705038924049e+00 3.496107588846414274e+02 6.829725175006546260e-06
5.815147437849768508e+00 3.491614597508414590e+02 6.286967630629446072e-06
5.001564942720323259e+00 3.492255174843647296e+02 5.815020193248773682e-06
4.336702379544216335e+00 3.493056321251627878e+02 7.031246396629223370e-06
4.085825908311040422e+00 3.489451892367711139e+02 7.741057373370868023e-06
3.290370833202852729e+00 3.495310306565964424e+02 6.221130474087351796e-06
2.664409121403283454e+00 3.491281912180238010e+02 7.013214353068008182e-06
2.059172149225098725e+00 3.486786244103890908e+02 5.331469234768575358e-06
1.404711678063702340e+00 3.486022182509721006e+02 5.339428485798857060e-06
6.758745832271636500e-01 3.488125831503476206e+02 5.075909945525893899e-06
1.160263797079122750e+00 3.478474311428978467e+02 5.270334150480857816e-06
1.830508078222924828e+00 3.479466294046944199e+02 7.258780693123088305e-06
2.612620336855504100e+00 3.484429846167737423e+02 7.574803599262491188e-06
3.174138538714616598e+00 3.481738873329791772e+02 7.108384922992040471e-06
3.909873202079744203e+00 3.486456072182196522e+02 7.573097352854774081e-06
4.381671758610085732e+00 3.484027069627192645e+02 7.359121348685811577e-06
4.692767091179038452e+00 3.487406336311848918e+02 5.438251740949390891e-06
5.420119088128737772e+00 3.486451709391469080e+02 5.543070609358445632e-06
6.223190575522679957e+00 3.484506145504282131e+02 6.088082828497714191e-06
6.816430160717161790e+00 3.488321305338375282e+02 6.601262221753128203e-06
7.552353184211148651e+00 3.486777716445124611e+02 7.093187503333640559e-06
8.200103165611400513e+00 3.486082042388696891e+02 7.391784876271041105e-06
8.835559765539683141e+00 3.485716725814438632e+02 7.511590948764007614e-06
9.481245473690888659e+00 3.485343566939633320e+02 7.763928764452764577e-06
1.014618619991367687e+01 3.484770529830591954e+02 7.751013585880791904e-06
1.083604428032696632e+01 3.483918335805568631e+02 8.025973819091392213e-06
1.155268153307526013e+01 3.482819568121921634e+02 8.712328080298750008e-06
1.156219179754103976e+01 3.498819768720874777e+02 8.549049787063957856e-06
1.085450229159476265e+01 3.500129131821893793e+02 8.050117292996774668e-06
1.016846010549286738e+01 3.501187088859463756e+02 7.908287799019453435e-06
9.503393805850832265e+00 3.501929183777847925e+02 7.745461987209312921e-06
8.864637700263774178e+00 3.502381441652565854e+02 7.657693589838286384e-06
8.267832086234976785e+00 3.502654680180340847e+02 7.654176164700065803e-06
7.736173449566701166e+00 3.502649887504995831e+02 7.512595593854517621e-06
7.320356292153286759e+00 3.502056926649384536e+02 7.445623865036994993e-06
6.677970089660855812e+00 3.501339416648592646e+02 7.213175194046836943e-06
5.855456505427886427e+00 3.503568858574608953e+02 7.028215645020285383e-06
5.284662528243000423e+00 3.499578128540981652e+02 6.578801772676124234e-06
4.594976150260111858e+00 3.501038493991615042e+02 6.364474993678960468e-06
3.426265618694531057e+00 3.501561980990680922e+02 6.289437562621720456e-06
2.786522864813408162e+00 3.497829424076213627e+02 5.887469529865712422e-06
2.072217689851088451e+00 3.493945650697285714e+02 5.567320263992616272e-06
1.402177145173185924e+00 3.494998866635392574e+02 6.046891639089016732e-06
7.000564359620706778e-01 3.504254410098149037e+02 5.394457678094293170e-06
1.157980411027106804e+01 3.506672710013299366e+02 8.493511714155461048e-06
1.088331370314331181e+01 3.507999454598356692e+02 8.079049071060411962e-06
1.020459193483890736e+01 3.509113039654060344e+02 7.869462484776355317e-06
9.543186484776326139e+00 3.509978098527188877e+02 7.867064129395408777e-06
8.902302037869196383e+00 3.510636333932224602e+02 7.830112067512573989e-06
8.280485530266176397e+00 3.511019432559580764e+02 7.821170945085489899e-06
7.640071343000514936e+00 3.510954378868188996e+02 7.607260173313565078e-06
7.099558498913919991e+00 3.506267974652862449e+02 7.472033349635559683e-06
6.356598238496441233e+00 3.507424225642570264e+02 7.299391282418880956e-06
5.612479627354466594e+00 3.511513337031056494e+02 7.311944971643523124e-06
5.092458315110632405e+00 3.509525676939194341e+02 7.151503773593556726e-06
4.521664337925743737e+00 3.508843883422475756e+02 6.919061677771130498e-06
3.949227655399296655e+00 3.508392565846544926e+02 6.749513774131513424e-06
3.394732595488052063e+00 3.508209559666592554e+02 6.612886207155889084e-06
2.819526890931075780e+00 3.507039104134665877e+02 6.536806234122418487e-06
2.198007659177707573e+00 3.502853883645235555e+02 6.158788503836849623e-06
1.418054494539343846e+00 3.503450865059872967e+02 5.937735762651377491e-06
6.824594995690892452e-01 3.512335889101873363e+02 5.477968310748325161e-06
1.161731212178315609e+01 3.522367519647322069e+02 8.373252980092790821e-06
1.094947808147200874e+01 3.523639231523914077e+02 7.967879690302708608e-06
1.029462551371579160e+01 3.524713517888837373e+02 7.833809502135475529e-06
9.646734582559279403e+00 3.525636407363589342e+02 7.703344903217347326e-06
9.000954053662937326e+00 3.526430678677360220e+02 7.762863252511587500e-06
8.351357630455195746e+00 3.527151502055136802e+02 7.873952443198473249e-06
7.701949567376344064e+00 3.527320980701668418e+02 7.866554830138434022e-06
6.503332060247355884e+00 3.523510846282284206e+02 7.672398694515001260e-06
5.334558741972165841e+00 3.526193688894200591e+02 7.670196195792435448e-06
4.836529435794941989e+00 3.525101365405736260e+02 7.560333194684680642e-06
4.323077663555961792e+00 3.524159890397551749e+02 7.472072523751761605e-06
3.784239558846484996e+00 3.523195786491025387e+02 7.438785127262214063e-06
3.210771380376209017e+00 3.522100838690724345e+02 7.140430831216383876e-06
2.592223625757882566e+00 3.520988580641652561e+02 7.084529316033922542e-06
1.961443995015811570e+00 3.520170203740660213e+02 6.793721645861775894e-06
1.294500500892171058e+00 3.527717965380430769e+02 6.224853126331585350e-06
6.499718621040443400e-01 3.528270806655554566e+02 5.525629946058037087e-06
1.319120579233020729e+00 3.520010321791751267e+02 6.377043948331265124e-06
2.040715419318719803e+00 3.512234601239082394e+02 6.558135663353121502e-06
