1.293500910847755847e+01 2.588495575624512526e+02 1.209624491946186403e-01
1.293500910847755847e+01 2.580530983379813392e+02 1.205838059146213948e-01
1.293500910847755847e+01 2.572566377137416680e+02 1.206329614741361023e-01
1.293500910847755847e+01 2.564601771476702652e+02 1.207050941029291224e-01
1.293500910847755847e+01 2.556637170702582011e+02 1.206491111627309432e-01
1.293500910847755847e+01 2.548672567691085646e+02 1.209076134101354644e-01
1.293500910847755847e+01 2.540707953152218010e+02 1.210041085911802844e-01
1.293500910847755847e+01 2.532743357826379906e+02 1.212810625982529977e-01
1.293500910847755847e+01 2.524778750528269313e+02 1.215296605994086454e-01
1.293500910847755847e+01 2.516814164187097731e+02 1.215174759375389629e-01
1.293500910847755847e+01 2.508849553359679589e+02 1.216594095255271596e-01
1.293500910847755847e+01 2.500884969028692808e+02 1.220643747901402759e-01
1.293500910847755847e+01 2.492920357422066786e+02 1.219578091034423939e-01
1.293500910847755847e+01 2.484955746038096720e+02 1.219345903077942439e-01
1.293500910847755847e+01 2.476991157054704047e+02 1.222429018710403242e-01
1.293500910847755847e+01 2.469026549967339577e+02 1.223746407624429211e-01
1.293500910847755847e+01 2.461061945753463931e+02 1.223314960857942446e-01
1.293500910847755847e+01 2.453097354150016827e+02 1.226253019793199228e-01
1.293500910847755847e+01 2.445132757602295897e+02 1.225418759609851610e-01
1.293500910847755847e+01 2.437168159647070809e+02 1.224129112404409581e-01
1.293500910847755847e+01 2.429203541736176817e+02 1.222487171510721199e-01
1.293500910847755847e+01 2.421238950367728933e+02 1.220995542075729579e-01
1.293500910847755847e+01 2.413274322946253676e+02 1.218085240402893982e-01
1.293500910847755847e+01 2.405309729627819593e+02 1.212680600835574357e-01
1.293500910847755847e+01 2.397345133940177675e+02 1.206750722279650856e-01
1.293500910847755847e+01 2.389380534519567902e+02 1.204511730633254230e-01
1.293500910847755847e+01 2.381415924354594722e+02 1.200309492874106349e-01
1.293500910847755847e+01 2.373451330200340124e+02 1.189478481587042391e-01
1.293500910847755847e+01 2.365486722448804926e+02 1.179681346438184036e-01
1.293500910847755847e+01 2.357522131324427903e+02 1.191297348451598737e-01
1.293500910847755847e+01 2.349557534173832778e+02 1.184688110948184242e-01
1.293500910847755847e+01 2.341592919530772008e+02 1.182825440934510419e-01
1.293500910847755847e+01 2.333628320779596663e+02 1.181384529092758817e-01
1.293500910847755847e+01 2.325663705771988816e+02 1.177471114967016813e-01
1.293500910847755847e+01 2.317699118962098055e+02 1.177972347573984224e-01
1.293500910847755847e+01 2.309734516696036337e+02 1.174536017363982388e-01
1.293500910847755847e+01 2.301769914626933655e+02 1.172685061536196810e-01
1.293500910847755847e+01 2.293805322768739074e+02 1.172041465364833251e-01
1.293500910847755847e+01 2.285840705252784346e+02 1.172887737579577649e-01
1.293500910847755847e+01 2.277876106945566903e+02 1.175737119374514333e-01
1.293500910847755847e+01 2.269911515643165671e+02 1.175809351610268838e-01
1.293500910847755847e+01 2.261946874803456922e+02 1.180267535909592796e-01
1.293500910847755847e+01 2.253982293195803095e+02 1.186469305937504215e-01
1.293500910847755847e+01 2.246017706804196905e+02 1.189584570802446756e-01
1.293500910847755847e+01 2.238053125196542510e+02 1.196350250019497657e-01
1.293500910847755847e+01 2.230088484356832907e+02 1.201710090700123662e-01
1.293500910847755847e+01 2.222123893054432813e+02 1.206045428586048768e-01
1.293500910847755847e+01 2.214159294747215938e+02 1.213410796072582759e-01
1.293500910847755847e+01 2.206194677231260926e+02 1.218979084486630782e-01
1.293500910847755847e+01 2.198230085373066061e+02 1.223475071503281608e-01
1.293500910847755847e+01 2.190265483303963947e+02 1.223942867702720455e-01
1.293500910847755847e+01 2.182300881037901661e+02 1.226565807867729258e-01
1.293500910847755847e+01 2.174336294228010331e+02 1.230274731551668360e-01
1.293500910847755847e+01 2.166371679220403905e+02 1.230919884419131444e-01
1.293500910847755847e+01 2.158407080469227992e+02 1.232353110312317257e-01
1.293500910847755847e+01 2.150442465826166938e+02 1.234170275997485133e-01
1.293500910847755847e+01 2.142477868675572665e+02 1.237627547343453233e-01
1.293500910847755847e+01 2.134513277551193653e+02 1.239745690119355009e-01
1.293500910847755847e+01 2.126548669799660445e+02 1.239654865743216455e-01
1.293500910847755847e+01 2.118584075645404710e+02 1.242603667820497970e-01
1.293500910847755847e+01 2.110619465480432382e+02 1.245812072193223236e-01
1.293500910847755847e+01 2.102654866059822041e+02 1.245259526752039436e-01
1.293500910847755847e+01 2.094690270372180123e+02 1.249346216792332626e-01
1.293500910847755847e+01 2.086725677053744903e+02 1.245117228019643058e-01
1.293500910847755847e+01 2.078761049632269646e+02 1.243978392762215834e-01
1.293500910847755847e+01 2.070796458263822331e+02 1.233879572125914648e-01
1.293500910847755847e+01 2.062831840352928907e+02 1.242792905619944377e-01
1.293500910847755847e+01 2.054867242397704388e+02 1.237486070235331581e-01
1.293500910847755847e+01 2.046902645849982321e+02 1.218129393064185662e-01
1.293500910847755847e+01 2.038938054246536069e+02 1.208032531727786796e-01
1.293500910847755847e+01 2.030973450032660423e+02 1.194969139724508800e-01
1.293500910847755847e+01 2.023008842945295953e+02 1.186714686317111439e-01
1.293500910847755847e+01 2.015044253961902712e+02 1.184210593166267200e-01
1.293500910847755847e+01 2.007079642577932930e+02 1.176255801011558411e-01
1.293500910847755847e+01 1.999115030971306908e+02 1.171971157497711247e-01
1.293500910847755847e+01 1.991150446640320411e+02 1.173056276899211575e-01
1.293500910847755847e+01 1.983185835812901701e+02 1.169804625107690454e-01
1.293500910847755847e+01 1.975221249471728697e+02 1.169403924234490022e-01
1.293500910847755847e+01 1.967256642173620378e+02 1.167934017276803654e-01
1.293500910847755847e+01 1.959292046847782274e+02 1.164746904983013642e-01
1.293500910847755847e+01 1.951327432308914354e+02 1.164996248848052390e-01
1.293500910847755847e+01 1.943362829297417704e+02 1.164013482452031650e-01
1.293500910847755847e+01 1.935398228523296780e+02 1.159620518483808344e-01
1.293500910847755847e+01 1.927433622862583888e+02 1.162481048210412399e-01
1.293500910847755847e+01 1.919469016620186324e+02 1.166124556352076402e-01
1.293500910847755847e+01 1.911504424375486337e+02 1.165312325689785572e-01
1.293500910847755847e+01 1.903539821625924731e+02 1.166743073493717031e-01
1.293500910847755847e+01 1.895575221766312097e+02 1.167808577456082852e-01
1.293500910847755847e+01 1.887610622149522328e+02 1.167969935680690657e-01
1.293500910847755847e+01 1.879646007811788877e+02 1.166572127307727996e-01
1.293500910847755847e+01 1.871681413899775919e+02 1.164680933781750000e-01
1.293500910847755847e+01 1.863716812706155963e+02 1.162720034226492755e-01
1.293500910847755847e+01 1.855752213806676423e+02 1.162675918512724033e-01
1.293500910847755847e+01 1.847787611056028823e+02 1.161103790452426843e-01
1.293500910847755847e+01 1.839823010276212756e+02 1.162158025851880438e-01
1.293500910847755847e+01 1.831858406201924083e+02 1.165493869300945617e-01
1.293500910847755847e+01 1.823893805248208935e+02 1.169816160025885649e-01
1.293500910847755847e+01 1.815929203568983894e+02 1.176031324158276353e-01
1.293500910847755847e+01 1.807964601804114011e+02 1.181861803655579052e-01
1.357695708536404489e+01 2.692035398195886273e+02 1.234651847123041241e-01
1.357695708536404489e+01 2.684070796431016674e+02 1.225721426079201259e-01
1.357695708536404489e+01 2.676106194751790781e+02 1.214801653491645039e-01
1.357695708536404489e+01 2.668141593798076201e+02 1.198533050875698752e-01
1.357695708536404489e+01 2.660176989723786960e+02 1.196675598239903549e-01
1.357695708536404489e+01 2.652212388943971177e+02 1.205832728906642420e-01
1.357695708536404489e+01 2.644247786193323577e+02 1.210207181101810442e-01
1.357695708536404489e+01 2.636283187293843753e+02 1.214146087098350868e-01
1.357695708536404489e+01 2.628318586100223797e+02 1.213737492101353149e-01
1.357695708536404489e+01 2.620353992188210555e+02 1.212351156590256024e-01
1.357695708536404489e+01 2.612389377850477672e+02 1.208853219892182390e-01
1.357695708536404489e+01 2.604424778233687903e+02 1.205580574327234367e-01
1.357695708536404489e+01 2.596460178374074417e+02 1.203099628442691610e-01
1.357695708536404489e+01 2.588495575624512526e+02 1.203302364891055548e-01
1.357695708536404489e+01 2.580530983379813392e+02 1.199265856458873597e-01
1.357695708536404489e+01 2.572566377137416680e+02 1.199353179981307027e-01
1.357695708536404489e+01 2.564601771476702652e+02 1.200690675229441201e-01
1.357695708536404489e+01 2.556637170702582011e+02 1.199820737587936059e-01
1.357695708536404489e+01 2.548672567691085646e+02 1.203577406953860451e-01
1.357695708536404489e+01 2.540707953152218010e+02 1.203811744489468039e-01
1.357695708536404489e+01 2.532743357826379906e+02 1.205927736158332458e-01
1.357695708536404489e+01 2.524778750528269313e+02 1.206715087113582469e-01
1.357695708536404489e+01 2.516814164187097731e+02 1.207122689119404374e-01
1.357695708536404489e+01 2.508849553359679589e+02 1.209765854920380052e-01
1.357695708536404489e+01 2.500884969028692808e+02 1.211172614606317588e-01
1.357695708536404489e+01 2.492920357422066786e+02 1.212950176236182454e-01
1.357695708536404489e+01 2.484955746038096720e+02 1.214483783914477033e-01
1.357695708536404489e+01 2.476991157054704047e+02 1.215674126674320815e-01
1.357695708536404489e+01 2.469026549967339577e+02 1.217706656597607601e-01
1.357695708536404489e+01 2.461061945753463931e+02 1.218997510062723583e-01
1.357695708536404489e+01 2.453097354150016827e+02 1.224374011128446654e-01
1.357695708536404489e+01 2.445132757602295897e+02 1.225234463799563245e-01
1.357695708536404489e+01 2.437168159647070809e+02 1.223668306528145205e-01
1.357695708536404489e+01 2.429203541736176817e+02 1.225471303601170792e-01
1.357695708536404489e+01 2.421238950367728933e+02 1.220755725895162347e-01
1.357695708536404489e+01 2.413274322946253676e+02 1.219611549629621566e-01
1.357695708536404489e+01 2.405309729627819593e+02 1.216135834686400408e-01
1.357695708536404489e+01 2.397345133940177675e+02 1.210057561776710644e-01
1.357695708536404489e+01 2.389380534519567902e+02 1.204957530090092627e-01
1.357695708536404489e+01 2.381415924354594722e+02 1.203703272672009966e-01
1.357695708536404489e+01 2.373451330200340124e+02 1.200831360086107163e-01
1.357695708536404489e+01 2.365486722448804926e+02 1.198616903820697993e-01
1.357695708536404489e+01 2.357522131324427903e+02 1.192427981479493998e-01
1.357695708536404489e+01 2.349557534173832778e+02 1.189000594261307164e-01
1.357695708536404489e+01 2.341592919530772008e+02 1.185826009069279457e-01
1.357695708536404489e+01 2.333628320779596663e+02 1.178523530424075566e-01
1.357695708536404489e+01 2.325663705771988816e+02 1.177992559115932647e-01
1.357695708536404489e+01 2.317699118962098055e+02 1.177396054261219960e-01
1.357695708536404489e+01 2.309734516696036337e+02 1.173876658572777232e-01
1.357695708536404489e+01 2.301769914626933655e+02 1.172138665976183158e-01
1.357695708536404489e+01 2.293805322768739074e+02 1.172381059896827060e-01
1.357695708536404489e+01 2.285840705252784346e+02 1.171090185188677218e-01
1.357695708536404489e+01 2.277876106945566903e+02 1.171318342641103211e-01
1.357695708536404489e+01 2.269911515643165671e+02 1.176617176445318852e-01
1.357695708536404489e+01 2.261946874803456922e+02 1.181421759169518360e-01
1.357695708536404489e+01 2.253982293195803095e+02 1.184703538325726363e-01
1.357695708536404489e+01 2.246017706804196905e+02 1.187368383842283548e-01
1.357695708536404489e+01 2.238053125196542510e+02 1.195343761539123806e-01
1.357695708536404489e+01 2.230088484356832907e+02 1.200980381930241980e-01
1.357695708536404489e+01 2.222123893054432813e+02 1.208028680737043975e-01
1.357695708536404489e+01 2.214159294747215938e+02 1.214821758873620011e-01
1.357695708536404489e+01 2.206194677231260926e+02 1.221478963444553589e-01
1.357695708536404489e+01 2.198230085373066061e+02 1.223159251462220404e-01
1.357695708536404489e+01 2.190265483303963947e+02 1.225912750433735543e-01
1.357695708536404489e+01 2.182300881037901661e+02 1.228626653207447600e-01
1.357695708536404489e+01 2.174336294228010331e+02 1.230998179532588055e-01
1.357695708536404489e+01 2.166371679220403905e+02 1.232277352211656463e-01
1.357695708536404489e+01 2.158407080469227992e+02 1.230392458843158343e-01
1.357695708536404489e+01 2.150442465826166938e+02 1.232589012569684367e-01
1.357695708536404489e+01 2.142477868675572665e+02 1.239018070847896363e-01
1.357695708536404489e+01 2.134513277551193653e+02 1.239745050118296055e-01
1.357695708536404489e+01 2.126548669799660445e+02 1.244140828033170054e-01
1.357695708536404489e+01 2.118584075645404710e+02 1.247337919877668372e-01
1.357695708536404489e+01 2.110619465480432382e+02 1.248910261844292796e-01
1.357695708536404489e+01 2.102654866059822041e+02 1.246985486987034625e-01
1.357695708536404489e+01 2.094690270372180123e+02 1.247020700874844623e-01
1.357695708536404489e+01 2.086725677053744903e+02 1.249265745160795249e-01
1.357695708536404489e+01 2.078761049632269646e+02 1.245626745994314749e-01
1.357695708536404489e+01 2.070796458263822331e+02 1.237720401431647577e-01
1.357695708536404489e+01 2.062831840352928907e+02 1.240307602677216819e-01
1.357695708536404489e+01 2.054867242397704388e+02 1.235838719124569551e-01
1.357695708536404489e+01 2.046902645849982321e+02 1.219887121471026625e-01
1.357695708536404489e+01 2.038938054246536069e+02 1.208643272034277266e-01
1.357695708536404489e+01 2.030973450032660423e+02 1.198529184885512855e-01
1.357695708536404489e+01 2.023008842945295953e+02 1.189755579875571845e-01
1.357695708536404489e+01 2.015044253961902712e+02 1.185186859151007993e-01
1.357695708536404489e+01 2.007079642577932930e+02 1.179380233445215254e-01
1.357695708536404489e+01 1.999115030971306908e+02 1.176707782692107962e-01
1.357695708536404489e+01 1.991150446640320411e+02 1.173330851092896365e-01
1.357695708536404489e+01 1.983185835812901701e+02 1.173655199276549821e-01
1.357695708536404489e+01 1.975221249471728697e+02 1.172702466252354414e-01
1.357695708536404489e+01 1.967256642173620378e+02 1.170824456650171597e-01
1.357695708536404489e+01 1.959292046847782274e+02 1.168669683228063250e-01
1.357695708536404489e+01 1.951327432308914354e+02 1.165330590287101259e-01
1.357695708536404489e+01 1.943362829297417704e+02 1.162470929929838859e-01
1.357695708536404489e+01 1.935398228523296780e+02 1.161831280134151545e-01
1.357695708536404489e+01 1.927433622862583888e+02 1.162281825131071811e-01
1.357695708536404489e+01 1.919469016620186324e+02 1.162998680785073957e-01
1.357695708536404489e+01 1.911504424375486337e+02 1.165835993268831139e-01
1.357695708536404489e+01 1.903539821625924731e+02 1.168303363833439190e-01
1.357695708536404489e+01 1.895575221766312097e+02 1.166529698329583226e-01
1.357695708536404489e+01 1.887610622149522328e+02 1.171234300690542768e-01
1.357695708536404489e+01 1.879646007811788877e+02 1.166256109645354422e-01
1.357695708536404489e+01 1.871681413899775919e+02 1.166841716031996046e-01
1.357695708536404489e+01 1.863716812706155963e+02 1.162762790132313567e-01
1.357695708536404489e+01 1.855752213806676423e+02 1.161134038939024837e-01
1.357695708536404489e+01 1.847787611056028823e+02 1.157328612151548031e-01
1.357695708536404489e+01 1.839823010276212756e+02 1.157561393611928058e-01
1.357695708536404489e+01 1.831858406201924083e+02 1.162000499370708373e-01
1.357695708536404489e+01 1.823893805248208935e+02 1.167401552222662453e-01
1.357695708536404489e+01 1.815929203568983894e+02 1.173117498271358250e-01
1.357695708536404489e+01 1.807964601804114011e+02 1.176446436662331452e-01
1.421890506225053308e+01 2.692035398195886273e+02 1.218436028101291257e-01
1.421890506225053308e+01 2.684070796431016674e+02 1.214342810040471982e-01
1.421890506225053308e+01 2.676106194751790781e+02 1.210251405920433621e-01
1.421890506225053308e+01 2.668141593798076201e+02 1.206158251878184789e-01
1.421890506225053308e+01 2.660176989723786960e+02 1.202064858055518770e-01
1.421890506225053308e+01 2.652212388943971177e+02 1.197971357054393587e-01
1.421890506225053308e+01 2.644247786193323577e+02 1.194869475945660037e-01
1.421890506225053308e+01 2.636283187293843753e+02 1.198943297919214390e-01
1.421890506225053308e+01 2.628318586100223797e+02 1.201433961063554379e-01
1.421890506225053308e+01 2.620353992188210555e+02 1.204017638178697808e-01
1.421890506225053308e+01 2.612389377850477672e+02 1.201235279333576350e-01
1.421890506225053308e+01 2.604424778233687903e+02 1.197886780630136455e-01
1.421890506225053308e+01 2.596460178374074417e+02 1.195789359764251047e-01
1.421890506225053308e+01 2.588495575624512526e+02 1.193890681080694016e-01
1.421890506225053308e+01 2.580530983379813392e+02 1.195788697513967269e-01
1.421890506225053308e+01 2.572566377137416680e+02 1.195100576633757183e-01
1.421890506225053308e+01 2.564601771476702652e+02 1.194645146728134794e-01
1.421890506225053308e+01 2.556637170702582011e+02 1.196038681261728659e-01
1.421890506225053308e+01 2.548672567691085646e+02 1.196772811900012751e-01
1.421890506225053308e+01 2.540707953152218010e+02 1.196488988877922460e-01
1.421890506225053308e+01 2.532743357826379906e+02 1.194967176579035534e-01
1.421890506225053308e+01 2.524778750528269313e+02 1.198526624300615268e-01
1.421890506225053308e+01 2.516814164187097731e+02 1.198867276474993582e-01
1.421890506225053308e+01 2.508849553359679589e+02 1.201446580123865654e-01
1.421890506225053308e+01 2.500884969028692808e+02 1.202926746576207656e-01
1.421890506225053308e+01 2.492920357422066786e+02 1.204218607364322263e-01
1.421890506225053308e+01 2.484955746038096720e+02 1.207068950175840816e-01
1.421890506225053308e+01 2.476991157054704047e+02 1.208639924409817407e-01
1.421890506225053308e+01 2.469026549967339577e+02 1.211155004772115212e-01
1.421890506225053308e+01 2.461061945753463931e+02 1.214265314849239941e-01
1.421890506225053308e+01 2.453097354150016827e+02 1.216791647509023605e-01
1.421890506225053308e+01 2.445132757602295897e+02 1.220848359178262343e-01
1.421890506225053308e+01 2.437168159647070809e+02 1.222769823620779989e-01
1.421890506225053308e+01 2.429203541736176817e+02 1.223167759045298841e-01
1.421890506225053308e+01 2.421238950367728933e+02 1.222048931624578755e-01
1.421890506225053308e+01 2.413274322946253676e+02 1.218978858821452432e-01
1.421890506225053308e+01 2.405309729627819593e+02 1.216502395664355168e-01
1.421890506225053308e+01 2.397345133940177675e+02 1.210997222006915258e-01
1.421890506225053308e+01 2.389380534519567902e+02 1.208576359873922007e-01
1.421890506225053308e+01 2.381415924354594722e+02 1.204267961196944792e-01
1.421890506225053308e+01 2.373451330200340124e+02 1.202229347304193952e-01
1.421890506225053308e+01 2.365486722448804926e+02 1.196603746702595561e-01
1.421890506225053308e+01 2.357522131324427903e+02 1.192880862343849852e-01
1.421890506225053308e+01 2.349557534173832778e+02 1.189676203823495232e-01
1.421890506225053308e+01 2.341592919530772008e+02 1.185640833505670066e-01
1.421890506225053308e+01 2.333628320779596663e+02 1.181965309521154778e-01
1.421890506225053308e+01 2.325663705771988816e+02 1.177278993499993459e-01
1.421890506225053308e+01 2.317699118962098055e+02 1.172728027335574602e-01
1.421890506225053308e+01 2.309734516696036337e+02 1.171553802402860445e-01
1.421890506225053308e+01 2.301769914626933655e+02 1.170383764191422066e-01
1.421890506225053308e+01 2.293805322768739074e+02 1.170475646491519195e-01
1.421890506225053308e+01 2.285840705252784346e+02 1.170436099392844626e-01
1.421890506225053308e+01 2.277876106945566903e+02 1.173798255880819652e-01
1.421890506225053308e+01 2.269911515643165671e+02 1.175600485875139545e-01
1.421890506225053308e+01 2.261946874803456922e+02 1.177824820883722617e-01
1.421890506225053308e+01 2.253982293195803095e+02 1.182056323376707435e-01
1.421890506225053308e+01 2.246017706804196905e+02 1.188790554433518248e-01
1.421890506225053308e+01 2.238053125196542510e+02 1.194027757096824821e-01
1.421890506225053308e+01 2.230088484356832907e+02 1.203074021645835212e-01
1.421890506225053308e+01 2.222123893054432813e+02 1.207100311172462220e-01
1.421890506225053308e+01 2.214159294747215938e+02 1.214942311826075622e-01
1.421890506225053308e+01 2.206194677231260926e+02 1.219012288087082813e-01
1.421890506225053308e+01 2.198230085373066061e+02 1.223521102612437211e-01
1.421890506225053308e+01 2.190265483303963947e+02 1.226987551321030850e-01
1.421890506225053308e+01 2.182300881037901661e+02 1.230055512785219185e-01
1.421890506225053308e+01 2.174336294228010331e+02 1.230307349445121240e-01
1.421890506225053308e+01 2.166371679220403905e+02 1.231590420613576792e-01
1.421890506225053308e+01 2.158407080469227992e+02 1.232152150412866853e-01
1.421890506225053308e+01 2.150442465826166938e+02 1.235732969071187820e-01
1.421890506225053308e+01 2.142477868675572665e+02 1.237448281779467141e-01
1.421890506225053308e+01 2.134513277551193653e+02 1.239873940443550343e-01
1.421890506225053308e+01 2.126548669799660445e+02 1.246274102089716812e-01
1.421890506225053308e+01 2.118584075645404710e+02 1.248694694322387000e-01
1.421890506225053308e+01 2.110619465480432382e+02 1.245409804857302849e-01
1.421890506225053308e+01 2.102654866059822041e+02 1.243070209714761537e-01
1.421890506225053308e+01 2.094690270372180123e+02 1.242600084771595254e-01
1.421890506225053308e+01 2.086725677053744903e+02 1.245508693462812760e-01
1.421890506225053308e+01 2.078761049632269646e+02 1.248423427620764387e-01
1.421890506225053308e+01 2.070796458263822331e+02 1.240829139206192644e-01
1.421890506225053308e+01 2.062831840352928907e+02 1.239225831533212752e-01
1.421890506225053308e+01 2.054867242397704388e+02 1.238700982582850024e-01
1.421890506225053308e+01 2.046902645849982321e+02 1.222714864087140335e-01
1.421890506225053308e+01 2.038938054246536069e+02 1.212637339806349190e-01
1.421890506225053308e+01 2.030973450032660423e+02 1.202984157657544795e-01
1.421890506225053308e+01 2.023008842945295953e+02 1.194738260030129562e-01
1.421890506225053308e+01 2.015044253961902712e+02 1.190999676349770026e-01
1.421890506225053308e+01 2.007079642577932930e+02 1.185744997684838459e-01
1.421890506225053308e+01 1.999115030971306908e+02 1.178605659908834036e-01
1.421890506225053308e+01 1.991150446640320411e+02 1.177453349830915458e-01
1.421890506225053308e+01 1.983185835812901701e+02 1.176610822195067185e-01
1.421890506225053308e+01 1.975221249471728697e+02 1.176863310960988007e-01
1.421890506225053308e+01 1.967256642173620378e+02 1.173876551808399199e-01
1.421890506225053308e+01 1.959292046847782274e+02 1.171537701289867006e-01
1.421890506225053308e+01 1.951327432308914354e+02 1.169379007669681253e-01
1.421890506225053308e+01 1.943362829297417704e+02 1.163508457711480842e-01
1.421890506225053308e+01 1.935398228523296780e+02 1.162622278701553602e-01
1.421890506225053308e+01 1.927433622862583888e+02 1.161121155798787163e-01
1.421890506225053308e+01 1.919469016620186324e+02 1.165055847978049980e-01
1.421890506225053308e+01 1.911504424375486337e+02 1.165659410744604024e-01
1.421890506225053308e+01 1.903539821625924731e+02 1.163250679910669133e-01
1.421890506225053308e+01 1.895575221766312097e+02 1.170097399981290254e-01
1.421890506225053308e+01 1.887610622149522328e+02 1.169090858851444398e-01
1.421890506225053308e+01 1.879646007811788877e+02 1.167805575935324247e-01
1.421890506225053308e+01 1.871681413899775919e+02 1.166363236986495550e-01
1.421890506225053308e+01 1.863716812706155963e+02 1.164364599080033591e-01
1.421890506225053308e+01 1.855752213806676423e+02 1.160677536654765168e-01
1.421890506225053308e+01 1.847787611056028823e+02 1.158076938915735404e-01
1.421890506225053308e+01 1.839823010276212756e+02 1.159401939285999161e-01
1.421890506225053308e+01 1.831858406201924083e+02 1.161637442165777967e-01
1.421890506225053308e+01 1.823893805248208935e+02 1.164335425301697979e-01
1.421890506225053308e+01 1.815929203568983894e+02 1.169391746283304223e-01
1.421890506225053308e+01 1.807964601804114011e+02 1.174562191383813625e-01
1.486085175777560607e+01 2.692035398195886273e+02 1.228803220496399590e-01
1.486085175777560607e+01 2.684070796431016674e+02 1.224381080957226420e-01
1.486085175777560607e+01 2.676106194751790781e+02 1.219960755362364813e-01
1.486085175777560607e+01 2.668141593798076201e+02 1.215538679875265843e-01
1.486085175777560607e+01 2.660176989723786960e+02 1.211116364478874441e-01
1.486085175777560607e+01 2.652212388943971177e+02 1.202579289319390815e-01
1.486085175777560607e+01 2.644247786193323577e+02 1.199117975480663567e-01
1.486085175777560607e+01 2.636283187293843753e+02 1.197280723031195621e-01
1.486085175777560607e+01 2.628318586100223797e+02 1.196036602949601541e-01
1.486085175777560607e+01 2.620353992188210555e+02 1.195031966993121836e-01
1.486085175777560607e+01 2.612389377850477672e+02 1.193062248978350032e-01
1.486085175777560607e+01 2.604424778233687903e+02 1.193113829925556424e-01
1.486085175777560607e+01 2.596460178374074417e+02 1.190320955799433061e-01
1.486085175777560607e+01 2.588495575624512526e+02 1.189479961397972851e-01
1.486085175777560607e+01 2.580530983379813392e+02 1.188009278758886400e-01
1.486085175777560607e+01 2.572566377137416680e+02 1.187677285878885464e-01
1.486085175777560607e+01 2.564601771476702652e+02 1.186539203985631646e-01
1.486085175777560607e+01 2.556637170702582011e+02 1.187986528364905203e-01
1.486085175777560607e+01 2.548672567691085646e+02 1.190163865726663051e-01
1.486085175777560607e+01 2.540707953152218010e+02 1.188824648344115054e-01
1.486085175777560607e+01 2.532743357826379906e+02 1.189346786813717943e-01
1.486085175777560607e+01 2.524778750528269313e+02 1.192591862326849994e-01
1.486085175777560607e+01 2.516814164187097731e+02 1.192150761769499856e-01
1.486085175777560607e+01 2.508849553359679589e+02 1.192466069810825535e-01
1.486085175777560607e+01 2.500884969028692808e+02 1.195988724168597639e-01
1.486085175777560607e+01 2.492920357422066786e+02 1.199119914879770432e-01
1.486085175777560607e+01 2.484955746038096720e+02 1.202695965423902225e-01
1.486085175777560607e+01 2.476991157054704047e+02 1.203654120530194410e-01
1.486085175777560607e+01 2.469026549967339577e+02 1.206557959699614407e-01
1.486085175777560607e+01 2.461061945753463931e+02 1.209706568567582852e-01
1.486085175777560607e+01 2.453097354150016827e+02 1.212367892020102811e-01
1.486085175777560607e+01 2.445132757602295897e+02 1.217692013724649830e-01
1.486085175777560607e+01 2.437168159647070809e+02 1.218292259796481813e-01
1.486085175777560607e+01 2.429203541736176817e+02 1.219857723394539989e-01
1.486085175777560607e+01 2.421238950367728933e+02 1.220697475655578013e-01
1.486085175777560607e+01 2.413274322946253676e+02 1.221965814500362013e-01
1.486085175777560607e+01 2.405309729627819593e+02 1.216515330324239169e-01
1.486085175777560607e+01 2.397345133940177675e+02 1.212749214241472390e-01
1.486085175777560607e+01 2.389380534519567902e+02 1.207838250335601243e-01
1.486085175777560607e+01 2.381415924354594722e+02 1.204119965391805547e-01
1.486085175777560607e+01 2.373451330200340124e+02 1.202654132175126761e-01
1.486085175777560607e+01 2.365486722448804926e+02 1.198427341092042353e-01
1.486085175777560607e+01 2.357522131324427903e+02 1.193541779563616761e-01
1.486085175777560607e+01 2.349557534173832778e+02 1.188645158505158839e-01
1.486085175777560607e+01 2.341592919530772008e+02 1.187025892886560824e-01
1.486085175777560607e+01 2.333628320779596663e+02 1.182309786063870799e-01
1.486085175777560607e+01 2.325663705771988816e+02 1.177382605025405621e-01
1.486085175777560607e+01 2.317699118962098055e+02 1.175923055351375951e-01
1.486085175777560607e+01 2.309734516696036337e+02 1.170983834280627939e-01
1.486085175777560607e+01 2.301769914626933655e+02 1.170632887744591233e-01
1.486085175777560607e+01 2.293805322768739074e+02 1.169982692704769206e-01
1.486085175777560607e+01 2.285840705252784346e+02 1.172798890747912826e-01
1.486085175777560607e+01 2.277876106945566903e+02 1.172666843163165246e-01
1.486085175777560607e+01 2.269911515643165671e+02 1.173820251955015603e-01
1.486085175777560607e+01 2.261946874803456922e+02 1.177131028761692760e-01
1.486085175777560607e+01 2.253982293195803095e+02 1.184072917833918770e-01
1.486085175777560607e+01 2.246017706804196905e+02 1.189229971134852792e-01
1.486085175777560607e+01 2.238053125196542510e+02 1.194289304950552771e-01
1.486085175777560607e+01 2.230088484356832907e+02 1.200271087209432430e-01
1.486085175777560607e+01 2.222123893054432813e+02 1.204326533983089559e-01
1.486085175777560607e+01 2.214159294747215938e+02 1.215165008246373163e-01
1.486085175777560607e+01 2.206194677231260926e+02 1.219096364891509993e-01
1.486085175777560607e+01 2.198230085373066061e+02 1.223607552656869601e-01
1.486085175777560607e+01 2.190265483303963947e+02 1.224802200496816346e-01
1.486085175777560607e+01 2.182300881037901661e+02 1.228718636098932449e-01
1.486085175777560607e+01 2.174336294228010331e+02 1.226781696920551251e-01
1.486085175777560607e+01 2.166371679220403905e+02 1.231143372628560051e-01
1.486085175777560607e+01 2.158407080469227992e+02 1.234448634314054410e-01
1.486085175777560607e+01 2.150442465826166938e+02 1.235369819263865965e-01
1.486085175777560607e+01 2.142477868675572665e+02 1.237960579389198457e-01
1.486085175777560607e+01 2.134513277551193653e+02 1.240174643536022386e-01
1.486085175777560607e+01 2.126548669799660445e+02 1.244107739858315992e-01
1.486085175777560607e+01 2.118584075645404710e+02 1.249579074809753221e-01
1.486085175777560607e+01 2.110619465480432382e+02 1.244975020124826359e-01
1.486085175777560607e+01 2.102654866059822041e+02 1.243983823548188844e-01
1.486085175777560607e+01 2.094690270372180123e+02 1.242607586960246813e-01
1.486085175777560607e+01 2.086725677053744903e+02 1.244603095261982012e-01
1.486085175777560607e+01 2.078761049632269646e+02 1.248390160433541646e-01
1.486085175777560607e+01 2.070796458263822331e+02 1.242186419955243065e-01
1.486085175777560607e+01 2.062831840352928907e+02 1.238024732273021178e-01
1.486085175777560607e+01 2.054867242397704388e+02 1.240850323843335212e-01
1.486085175777560607e+01 2.046902645849982321e+02 1.227534112145008266e-01
1.486085175777560607e+01 2.038938054246536069e+02 1.217348652217782462e-01
1.486085175777560607e+01 2.030973450032660423e+02 1.207423283078151166e-01
1.486085175777560607e+01 2.023008842945295953e+02 1.199021594701093624e-01
1.486085175777560607e+01 2.015044253961902712e+02 1.196549450016431149e-01
1.486085175777560607e+01 2.007079642577932930e+02 1.187865322720250416e-01
1.486085175777560607e+01 1.999115030971306908e+02 1.186876663191657189e-01
1.486085175777560607e+01 1.991150446640320411e+02 1.179154332491191143e-01
1.486085175777560607e+01 1.983185835812901701e+02 1.180927361869942016e-01
1.486085175777560607e+01 1.975221249471728697e+02 1.179447754957163863e-01
1.486085175777560607e+01 1.967256642173620378e+02 1.177750969414103066e-01
1.486085175777560607e+01 1.959292046847782274e+02 1.175533636456424363e-01
1.486085175777560607e+01 1.951327432308914354e+02 1.174386698953241992e-01
1.486085175777560607e+01 1.943362829297417704e+02 1.163181794083738008e-01
1.486085175777560607e+01 1.935398228523296780e+02 1.166953674172521022e-01
1.486085175777560607e+01 1.927433622862583888e+02 1.163964852675712786e-01
1.486085175777560607e+01 1.919469016620186324e+02 1.161260288880862357e-01
1.486085175777560607e+01 1.911504424375486337e+02 1.165246442118677839e-01
1.486085175777560607e+01 1.903539821625924731e+02 1.167866966766962361e-01
1.486085175777560607e+01 1.895575221766312097e+02 1.168499394241359624e-01
1.486085175777560607e+01 1.887610622149522328e+02 1.168624625012916057e-01
1.486085175777560607e+01 1.879646007811788877e+02 1.168674356689075461e-01
1.486085175777560607e+01 1.871681413899775919e+02 1.167343734905517544e-01
1.486085175777560607e+01 1.863716812706155963e+02 1.165419104426388269e-01
1.486085175777560607e+01 1.855752213806676423e+02 1.162219287004694346e-01
1.486085175777560607e+01 1.847787611056028538e+02 1.160594040663971566e-01
1.486085175777560607e+01 1.839823010276212756e+02 1.159523036909928390e-01
1.486085175777560607e+01 1.831858406201924083e+02 1.158730309194806046e-01
1.486085175777560607e+01 1.823893805248208935e+02 1.162239128377001440e-01
1.486085175777560607e+01 1.815929203568983894e+02 1.166950124664623417e-01
1.486085175777560607e+01 1.807964601804114011e+02 1.172706538939007614e-01
1.550279973466209427e+01 2.692035398195886273e+02 1.235569525758046378e-01
1.550279973466209427e+01 2.684070796431016674e+02 1.224153404994399175e-01
1.550279973466209427e+01 2.676106194751790781e+02 1.211064172974766762e-01
1.550279973466209427e+01 2.668141593798076201e+02 1.195566965639835583e-01
1.550279973466209427e+01 2.660176989723786960e+02 1.194376488812156356e-01
1.550279973466209427e+01 2.652212388943971177e+02 1.196985970914164338e-01
1.550279973466209427e+01 2.644247786193323577e+02 1.195074297492459414e-01
1.550279973466209427e+01 2.636283187293843753e+02 1.195657599871566418e-01
1.550279973466209427e+01 2.628318586100223797e+02 1.193306616299258799e-01
1.550279973466209427e+01 2.620353992188210555e+02 1.189569008881096457e-01
1.550279973466209427e+01 2.612389377850477672e+02 1.188605463740236845e-01
1.550279973466209427e+01 2.604424778233687903e+02 1.186405312541199963e-01
1.550279973466209427e+01 2.596460178374074417e+02 1.184474554734078061e-01
1.550279973466209427e+01 2.588495575624512526e+02 1.182789733002329036e-01
1.550279973466209427e+01 2.580530983379813392e+02 1.183346529054460777e-01
1.550279973466209427e+01 2.572566377137416680e+02 1.181075693179673147e-01
1.550279973466209427e+01 2.564601771476702652e+02 1.180203757674587461e-01
1.550279973466209427e+01 2.556637170702582011e+02 1.182715987496038845e-01
1.550279973466209427e+01 2.548672567691085646e+02 1.181869356264911575e-01
1.550279973466209427e+01 2.540707953152218010e+02 1.182856087095069536e-01
1.550279973466209427e+01 2.532743357826379906e+02 1.182837762732538017e-01
1.550279973466209427e+01 2.524778750528269313e+02 1.183549559744250246e-01
1.550279973466209427e+01 2.516814164187097731e+02 1.186527560381693963e-01
1.550279973466209427e+01 2.508849553359679589e+02 1.187394223560579581e-01
1.550279973466209427e+01 2.500884969028692808e+02 1.190117191519766415e-01
1.550279973466209427e+01 2.492920357422066786e+02 1.192448626474339191e-01
1.550279973466209427e+01 2.484955746038096720e+02 1.195065072403673212e-01
1.550279973466209427e+01 2.476991157054704047e+02 1.197075916239015159e-01
1.550279973466209427e+01 2.469026549967339577e+02 1.200998454552404809e-01
1.550279973466209427e+01 2.461061945753463931e+02 1.207476185193609997e-01
1.550279973466209427e+01 2.453097354150016827e+02 1.211105689099821192e-01
1.550279973466209427e+01 2.445132757602295897e+02 1.213274526347004056e-01
1.550279973466209427e+01 2.437168159647070809e+02 1.216365951385210836e-01
1.550279973466209427e+01 2.429203541736176817e+02 1.218683221513509607e-01
1.550279973466209427e+01 2.421238950367728933e+02 1.218683725771848025e-01
1.550279973466209427e+01 2.413274322946253676e+02 1.217624418557358007e-01
1.550279973466209427e+01 2.405309729627819593e+02 1.216697011194440847e-01
1.550279973466209427e+01 2.397345133940177675e+02 1.213525316680522798e-01
1.550279973466209427e+01 2.389380534519567902e+02 1.209665532245281644e-01
1.550279973466209427e+01 2.381415924354594722e+02 1.207684981872153979e-01
1.550279973466209427e+01 2.373451330200340124e+02 1.203163461615093660e-01
1.550279973466209427e+01 2.365486722448804926e+02 1.200729065206252444e-01
1.550279973466209427e+01 2.357522131324427903e+02 1.193228964333496733e-01
1.550279973466209427e+01 2.349557534173832778e+02 1.188888994180905406e-01
1.550279973466209427e+01 2.341592919530772008e+02 1.187059547872758025e-01
1.550279973466209427e+01 2.333628320779596663e+02 1.183797491521420414e-01
1.550279973466209427e+01 2.325663705771988816e+02 1.179135792067790844e-01
1.550279973466209427e+01 2.317699118962098055e+02 1.175321318846379998e-01
1.550279973466209427e+01 2.309734516696036337e+02 1.168687019262245053e-01
1.550279973466209427e+01 2.301769914626933655e+02 1.167477653734158433e-01
1.550279973466209427e+01 2.293805322768739074e+02 1.169014248996501221e-01
1.550279973466209427e+01 2.285840705252784346e+02 1.170216865729389599e-01
1.550279973466209427e+01 2.277876106945566903e+02 1.172290981776023949e-01
1.550279973466209427e+01 2.269911515643165671e+02 1.174328194766496858e-01
1.550279973466209427e+01 2.261946874803456922e+02 1.176914366431970060e-01
1.550279973466209427e+01 2.253982293195803095e+02 1.183067412803131963e-01
1.550279973466209427e+01 2.246017706804196905e+02 1.189606607703603963e-01
1.550279973466209427e+01 2.238053125196542510e+02 1.193404381416854620e-01
1.550279973466209427e+01 2.230088484356832907e+02 1.201503534180062421e-01
1.550279973466209427e+01 2.222123893054432813e+02 1.206954323575627069e-01
1.550279973466209427e+01 2.214159294747215938e+02 1.213216348141781947e-01
1.550279973466209427e+01 2.206194677231260926e+02 1.217793702127153155e-01
1.550279973466209427e+01 2.198230085373066061e+02 1.222654351796506750e-01
1.550279973466209427e+01 2.190265483303963947e+02 1.228529323812898449e-01
1.550279973466209427e+01 2.182300881037901661e+02 1.228809373236827984e-01
1.550279973466209427e+01 2.174336294228010331e+02 1.229963886052581612e-01
1.550279973466209427e+01 2.166371679220403905e+02 1.231088706606908445e-01
1.550279973466209427e+01 2.158407080469227992e+02 1.233534902038121578e-01
1.550279973466209427e+01 2.150442465826166938e+02 1.234355990496209254e-01
1.550279973466209427e+01 2.142477868675572665e+02 1.237649512044424749e-01
1.550279973466209427e+01 2.134513277551193653e+02 1.242201789885899604e-01
1.550279973466209427e+01 2.126548669799660445e+02 1.247690800751393991e-01
1.550279973466209427e+01 2.118584075645404710e+02 1.249163479107039537e-01
1.550279973466209427e+01 2.110619465480432382e+02 1.245537558062983219e-01
1.550279973466209427e+01 2.102654866059822041e+02 1.242402028987385221e-01
1.550279973466209427e+01 2.094690270372180123e+02 1.241756366282095181e-01
1.550279973466209427e+01 2.086725677053744903e+02 1.241968080156289067e-01
1.550279973466209427e+01 2.078761049632269646e+02 1.246137107516779030e-01
1.550279973466209427e+01 2.070796458263822331e+02 1.242673765391640456e-01
1.550279973466209427e+01 2.062831840352928907e+02 1.242219536256232021e-01
1.550279973466209427e+01 2.054867242397704388e+02 1.241699510352202857e-01
1.550279973466209427e+01 2.046902645849982321e+02 1.230506367211302021e-01
1.550279973466209427e+01 2.038938054246536069e+02 1.220348771323278847e-01
1.550279973466209427e+01 2.030973450032660423e+02 1.212455416584032469e-01
1.550279973466209427e+01 2.023008842945295953e+02 1.203661955669809852e-01
1.550279973466209427e+01 2.015044253961902712e+02 1.199430569183237982e-01
1.550279973466209427e+01 2.007079642577932930e+02 1.193281456949426833e-01
1.550279973466209427e+01 1.999115030971306908e+02 1.189358485297987017e-01
1.550279973466209427e+01 1.991150446640320411e+02 1.186681659036014358e-01
1.550279973466209427e+01 1.983185835812901701e+02 1.185265819239805229e-01
1.550279973466209427e+01 1.975221249471728697e+02 1.182500396207603610e-01
1.550279973466209427e+01 1.967256642173620378e+02 1.180253345573697571e-01
1.550279973466209427e+01 1.959292046847782274e+02 1.178864653392213135e-01
1.550279973466209427e+01 1.951327432308914354e+02 1.175129856039592441e-01
1.550279973466209427e+01 1.943362829297417704e+02 1.169159007924099603e-01
1.550279973466209427e+01 1.935398228523296780e+02 1.164797366265554468e-01
1.550279973466209427e+01 1.927433622862583888e+02 1.162471240903266839e-01
1.550279973466209427e+01 1.919469016620186324e+02 1.163546817063280392e-01
1.550279973466209427e+01 1.911504424375486337e+02 1.164892650621555947e-01
1.550279973466209427e+01 1.903539821625924731e+02 1.165475154810127201e-01
1.550279973466209427e+01 1.895575221766312097e+02 1.166848953388051613e-01
1.550279973466209427e+01 1.887610622149522328e+02 1.169196540036210735e-01
1.550279973466209427e+01 1.879646007811788877e+02 1.167801823619953466e-01
1.550279973466209427e+01 1.871681413899775919e+02 1.166481578073717135e-01
1.550279973466209427e+01 1.863716812706155963e+02 1.165387268639073992e-01
1.550279973466209427e+01 1.855752213806676423e+02 1.160289390877613652e-01
1.550279973466209427e+01 1.847787611056028538e+02 1.158659715690208841e-01
1.550279973466209427e+01 1.839823010276212756e+02 1.157260572223691442e-01
1.550279973466209427e+01 1.831858406201924083e+02 1.159079824298606815e-01
1.550279973466209427e+01 1.823893805248208935e+02 1.161200663931270805e-01
1.550279973466209427e+01 1.815929203568983894e+02 1.161497374926409587e-01
1.550279973466209427e+01 1.807964601804114011e+02 1.167877530413153203e-01
1.165727650313905173e+01 1.792112098022312523e+02 1.209986342918295960e-01
1.167814219251669172e+01 1.760516630370125881e+02 1.227494986870652782e-01
7.322314212404229528e-01 1.775064271523151831e+02 1.213823598899040207e-01
1.167858041812264069e+01 1.744901556076461873e+02 1.227635510449994055e-01
7.454332879597735939e-01 1.750835865515105070e+02 1.244241000532553959e-01
1.160500208261273158e+01 1.705903260193199458e+02 1.220239770294205134e-01
7.360485969132377626e-01 1.718542312911843908e+02 1.245136047837399618e-01
1.159156572675336783e+01 1.689933414678583858e+02 1.220924210098132817e-01
7.301197376188083288e-01 1.694382656572030896e+02 1.237802665184409567e-01
1.162597796907258640e+01 1.649977662914589587e+02 1.217389580672409016e-01
7.322788316129923425e-01 1.662050484243703465e+02 1.231838878398451576e-01
1.164308926948702627e+01 1.618497569446475666e+02 1.204847585424391604e-01
6.520835457256587420e-01 1.630724107796864075e+02 1.243906302561521154e-01
1.159643105606844316e+01 1.586950852078518608e+02 1.199412463570456444e-01
6.964429967551859502e-01 1.591251787134341669e+02 1.241508376059175661e-01
1.159311489271121332e+01 1.562854381394326140e+02 1.199513132497952439e-01
7.115694683287083766e-01 1.575253662593680701e+02 1.244148522734366269e-01
1.159453848524979946e+01 1.546758538104768661e+02 1.198859176003298777e-01
7.199841687796376677e-01 1.551153972347116223e+02 1.237457366753329652e-01
1.161416766085629781e+01 1.506660255631956886e+02 1.229699046483153646e-01
7.216422504582687969e-01 1.518966288587542692e+02 1.232127322577372258e-01
1.163010651557064712e+01 1.490780761816301663e+02 1.244106548570971249e-01
7.010418028947177360e-01 1.486979080636857873e+02 1.233487966409620440e-01
1.159522657633282350e+01 1.443542673171836839e+02 1.246932896271283620e-01
6.583250572067809170e-01 1.455683751538211936e+02 1.239198275341789196e-01
1.157357797512701580e+01 1.419647249392619415e+02 1.236248650592779025e-01
6.968184356514889322e-01 1.431888908283403623e+02 1.245983084839423216e-01
1.158385449372247678e+01 1.387553827750176367e+02 1.236968100164381190e-01
7.247546773495714412e-01 1.391776079554293801e+02 1.246184218503958441e-01
1.161840768579801342e+01 1.363642140430651182e+02 1.249004741366547960e-01
7.230184326242889981e-01 1.375696584241089226e+02 1.248595880122468360e-01
1.162927747473136009e+01 1.339950553858255091e+02 1.239456489536206601e-01
7.087850699611101257e-01 1.351655107792685158e+02 1.247395288096362215e-01
1.158466815822475304e+01 1.300454227641706098e+02 1.245386722300293042e-01
6.564952730977480222e-01 1.304473658326184307e+02 1.234568969203320432e-01
1.157398544805884022e+01 1.284394079616227486e+02 1.245030707503940459e-01
6.517708935389662228e-01 1.288655215485445638e+02 1.233785395671202351e-01
1.155462023290505691e+01 1.244041769197871616e+02 1.226333180114772825e-01
6.363484274772096549e-01 1.256276718858368469e+02 1.229170526019021242e-01
1.157229533234471752e+01 1.227751652770290747e+02 1.213799050924342232e-01
5.405282204236361299e-01 1.233334559428407999e+02 1.209796826628451033e-01
1.869706205449146896e+00 1.200264988596420750e+02 1.247125527337317463e-01
1.165494570671446617e+01 1.187993176263943553e+02 1.169902355072730410e-01
7.406153690172704307e-01 1.198701456945086790e+02 1.244362458013120037e-01
1.163694257875107496e+01 1.164527303472202817e+02 1.141262287924365570e-01
6.275736644670183439e-01 1.168862387054627590e+02 1.228037886641590026e-01
1.158363538091950851e+01 1.141231041935595556e+02 1.120206827101287578e-01
6.108839319600037898e-01 1.145789298058747221e+02 1.243875510408031654e-01
1.157199805649506175e+01 1.101104767469396819e+02 1.089968258612356022e-01
6.929397546304809641e-01 1.113672209997525471e+02 1.225207109052559029e-01
1.157421993719886011e+01 1.085026548127642343e+02 1.079764101566212248e-01
6.674124724036648582e-01 1.089817151128536636e+02 1.217396724417926651e-01
1.161925210297436983e+01 1.044996082671149651e+02 1.084429596320296840e-01
6.408536942330491648e-01 1.058225016206068432e+02 1.213766828939600445e-01
1.162996684717577445e+01 1.029164172606131444e+02 1.101866114245399209e-01
6.785654422110405370e-01 1.026428546849725194e+02 1.215638738286293069e-01
1.156985562019933944e+01 9.818186985081696605e+01 1.155396961339237999e-01
6.324069597465915571e-01 9.946799608483398458e+01 1.241389602185125618e-01
1.154714348901420529e+01 9.576817144545452720e+01 1.173369471503860756e-01
6.107429822037129252e-01 9.714921033003584228e+01 1.241996869211476340e-01
1.153757171920019609e+01 9.415186330065992593e+01 1.174861726628552011e-01
6.359883649179477461e-01 9.479608252579997441e+01 1.241357410217295842e-01
6.390854154722093172e-01 9.161460847887266823e+01 1.245770803862467219e-01
1.156133072266620054e+01 9.170351154050152331e+01 1.171410463635737531e-01
1.086709294891635125e+01 9.177712831147144357e+01 1.183313207116600402e-01
1.019964972383857393e+01 9.182212746065427211e+01 1.189724528518564806e-01
9.547268902263265744e+00 9.184852994603279797e+01 1.190879165143348822e-01
8.901505031065408247e+00 9.186297497686797442e+01 1.193709522444214438e-01
8.258196248349941371e+00 9.186881877829347331e+01 1.194660548268069583e-01
7.616499418301953206e+00 9.186758524206983623e+01 1.196498799849177869e-01
6.976912990514161805e+00 9.185987164060856003e+01 1.202284479123636451e-01
6.339220414906431067e+00 9.184554585059964893e+01 1.203334756268082811e-01
5.702934774138832097e+00 9.182496409189836584e+01 1.203916710552920266e-01
5.068682653946166461e+00 9.179937703236224422e+01 1.207635642075274435e-01
4.435901536664660583e+00 9.177109942803240017e+01 1.214150731364975200e-01
3.803854639477331379e+00 9.174193584823891001e+01 1.214497122686367253e-01
3.172213933860444701e+00 9.171322663554686017e+01 1.218417757942273638e-01
2.540793622407918395e+00 9.168558890416515794e+01 1.223142781894153985e-01
1.909200327163601330e+00 9.165933411356954252e+01 1.225808627451669963e-01
1.276184720742083112e+00 9.163468984530152284e+01 1.233728921233921416e-01
6.359729885809066730e-01 9.241533058957139701e+01 1.245870579996375266e-01
1.286930217617598293e+00 9.082005358664039818e+01 1.229464091577267548e-01
1.927485354639578041e+00 9.083305334774730966e+01 1.224595130548715161e-01
2.567102535101480676e+00 9.084711340595553963e+01 1.217057889302793627e-01
3.206515979097452895e+00 9.086174568185936096e+01 1.215497792174374814e-01
3.845976833466023148e+00 9.087646825636616654e+01 1.212284547728296469e-01
4.485515850881244937e+00 9.089082644583436377e+01 1.207700658866553978e-01
5.125243228425326869e+00 9.090427238345384353e+01 1.205288332704236437e-01
5.765453679225085892e+00 9.091612109126300822e+01 1.205188278709664468e-01
6.406338126132246735e+00 9.092566579753002998e+01 1.201036776325196398e-01
7.047863253749833135e+00 9.093239498915927754e+01 1.196900124547107536e-01
7.690202045869692249e+00 9.093598844722230012e+01 1.193541780654356760e-01
8.333354502491800986e+00 9.093631359877724663e+01 1.192331592156364029e-01
