2.944854488997469488e+01 3.546541899406881839e+02 1.214409360583482422e-01
2.851155247427285389e+01 3.549007004445840607e+02 1.217607120795361209e-01
2.765850476814603098e+01 3.549950460126730718e+02 1.223311155749587237e-01
2.679513089066869824e+01 3.550809148238166131e+02 1.232582946235777216e-01
2.590451542955356956e+01 3.551763816997486174e+02 1.248450442449109132e-01
2.587630681846848191e+01 3.543933724422024625e+02 1.243632669891127224e-01
2.673662152563854377e+01 3.543228681874336985e+02 1.229820345604747400e-01
2.756283632233574465e+01 3.542675719743940590e+02 1.219954386470846058e-01
2.832840756647122049e+01 3.542227605314502625e+02 1.215167344518954390e-01
2.974330831021343968e+01 3.537938711327082046e+02 1.206575692632185226e-01
3.048319698713488890e+01 3.539392586245763255e+02 1.206621147044188436e-01
3.123304016050972010e+01 3.540049456512339816e+02 1.201858218276510015e-01
3.277432382357604723e+01 3.541665392290605041e+02 1.202891968824240793e-01
3.334596990610581457e+01 3.544349889071261828e+02 1.204120217417772865e-01
3.434126650884030596e+01 3.542764919831720931e+02 1.201065061717463134e-01
3.542859889775688487e+01 3.543954660491513664e+02 1.201025275982749441e-01
3.577273621677560556e+01 3.548478656767671851e+02 1.203076613951497981e-01
3.700531444649311652e+01 3.540772684271062190e+02 1.200641254694806842e-01
3.781346348868746077e+01 3.540170817297528743e+02 1.201411226631375617e-01
3.863249201011089440e+01 3.539499857262762248e+02 1.202018285574695255e-01
3.946328463065436409e+01 3.538670843495785334e+02 1.199897332334898814e-01
4.030167388246664473e+01 3.537734826501832686e+02 1.190801630523418420e-01
4.033187372919979907e+01 3.553208977639648083e+02 1.202096922210551949e-01
3.952741957274766094e+01 3.561230913044446424e+02 1.214808070392166400e-01
3.871323627928200040e+01 3.561459354310446201e+02 1.216308419358978210e-01
3.790254101177418278e+01 3.561509914956272382e+02 1.214938196670971166e-01
3.709780095155500135e+01 3.561361932210959367e+02 1.211767247874240422e-01
3.629638578396775728e+01 3.560895686453538360e+02 1.210084854013479261e-01
3.547938886107709777e+01 3.559970472031967006e+02 1.208707660722899424e-01
3.467468916374268417e+01 3.558841988232000517e+02 1.210731155671021658e-01
3.384956248314708205e+01 3.558505260768216658e+02 1.211933028166663207e-01
3.299885582433622488e+01 3.557756705508467121e+02 1.213193706964102447e-01
3.214665069342873238e+01 3.556689479213987397e+02 1.211978441190313949e-01
3.128200370329466651e+01 3.556293857553591238e+02 1.213612009216183257e-01
3.040118128709391243e+01 3.556000750955538479e+02 1.215889523531905048e-01
2.951477365671478736e+01 3.555923403226236132e+02 1.217785312530941244e-01
2.862403374337162631e+01 3.556747064537922256e+02 1.221251325996809134e-01
2.773629077422177147e+01 3.557664084046431867e+02 1.228613240484554420e-01
2.684257577991464316e+01 3.558637808631948474e+02 1.234274082022108060e-01
2.592615329935749102e+01 3.559648547533871579e+02 1.248578203647383589e-01
3.952637350131769267e+01 3.568746401622295252e+02 1.219960983313012615e-01
3.871048487597103360e+01 3.568804516215395779e+02 1.220606876919839573e-01
3.789287241908783699e+01 3.568733976172166535e+02 1.218780296199884067e-01
3.707464274642521218e+01 3.568509684733290896e+02 1.215355416779954068e-01
3.625452610890017979e+01 3.568071390522389379e+02 1.214330061301473057e-01
3.542954238018808155e+01 3.567449045084983936e+02 1.213273575060606069e-01
3.461373616239782791e+01 3.566809925107481831e+02 1.217246458740993409e-01
3.378795190313802976e+01 3.566287828817963259e+02 1.216876387410548016e-01
3.294157752729117306e+01 3.565727050723496632e+02 1.218335406520742459e-01
3.209653680842822610e+01 3.565188003453271222e+02 1.216067953087690418e-01
3.124837637493083520e+01 3.564830567815185418e+02 1.221528960056900842e-01
3.038861665742616580e+01 3.564640818957487340e+02 1.221176352375806379e-01
2.952672107060306672e+01 3.564686631426246208e+02 1.222779517910629193e-01
2.865669572607502857e+01 3.565079738989905422e+02 1.225863094640948225e-01
2.777307986189164168e+01 3.565724608807983032e+02 1.229694114105524261e-01
2.687028994566143325e+01 3.566572558800249340e+02 1.235482459125165633e-01
2.593937382590253904e+01 3.567532772988531065e+02 1.244077493352085534e-01
4.032825956922710020e+01 3.576394683805059458e+02 1.218651403620339135e-01
3.949434723404922210e+01 3.584180754954559802e+02 1.231921240162665576e-01
3.866700227657882749e+01 3.584078726212320589e+02 1.230615534757146246e-01
3.783657964914561944e+01 3.583916805809014932e+02 1.232510428664733149e-01
3.700389838195284398e+01 3.583701595024041353e+02 1.227659556855280748e-01
3.616918383444040330e+01 3.583447744465009350e+02 1.224657984107079822e-01
3.533315581138646166e+01 3.583173492364218191e+02 1.223002386420927179e-01
3.449739519244404562e+01 3.582901182358997403e+02 1.224905477330861664e-01
3.366029923473090690e+01 3.582648893415021689e+02 1.225176814598677166e-01
3.282037114793725863e+01 3.582434793950048970e+02 1.224279910998325172e-01
3.197960048592427995e+01 3.582280136818126834e+02 1.226518370609682024e-01
3.113733135181466594e+01 3.582184830820388015e+02 1.226855098495872043e-01
3.029268080750434677e+01 3.582142358694594577e+02 1.228373911540819596e-01
2.944569089766492098e+01 3.582156843736854057e+02 1.230037167182274349e-01
2.859399871175123309e+01 3.582247860945590219e+02 1.233808416346226788e-01
2.773228812148330036e+01 3.582454255059684556e+02 1.235865288670203177e-01
2.685080812661834671e+01 3.582829836980084224e+02 1.243243782982119544e-01
2.593676705626193524e+01 3.583433083314583882e+02 1.244364927901921158e-01
2.687010494910629887e+01 3.574628414412472353e+02 1.240065319915959197e-01
2.776324645409253122e+01 3.574052070308708267e+02 1.236551133669542002e-01
2.863610560948793449e+01 3.573666889306600183e+02 1.230299753692639803e-01
2.949471498477700493e+01 3.573452177437915225e+02 1.225962888459087990e-01
3.034556627725826061e+01 3.573403398086745710e+02 1.225502455018136067e-01
3.119345930664411881e+01 3.573494713968840415e+02 1.224841239115721653e-01
3.203646842697425967e+01 3.573703311164414345e+02 1.223282959888757626e-01
3.287832552330198155e+01 3.574012387134731057e+02 1.224156719334007215e-01
3.371975376397912783e+01 3.574394141905737001e+02 1.220377114984421557e-01
3.455173708962296786e+01 3.574814911220412910e+02 1.220900575161425611e-01
3.537875241686786865e+01 3.575251518457362749e+02 1.218410664915705599e-01
3.620931967797143614e+01 3.575667754212981322e+02 1.222184351721415235e-01
3.703908640852731082e+01 3.576011615918229722e+02 1.221805781348507536e-01
3.786657263609438218e+01 3.576248285533404783e+02 1.224238854025554851e-01
3.869139154969371930e+01 3.576383256519661700e+02 1.227208412401694232e-01
3.951251557755084320e+01 3.576432171271260927e+02 1.224941849088941187e-01
4.033579397438191450e+01 3.568612925778604108e+02 1.210654650191065607e-01
3.946464015086750265e+01 3.592087532059106252e+02 1.238020670684721602e-01
3.862580018017541761e+01 3.592015360763627427e+02 1.238066168828180352e-01
3.778543987415747551e+01 3.591914517690504454e+02 1.237082399292194212e-01
3.694413608570832253e+01 3.591792216652740990e+02 1.233958407122872775e-01
3.610190899627033900e+01 3.591657100847252195e+02 1.229896283857084410e-01
3.525920764293645959e+01 3.591521928065641305e+02 1.229395744936209595e-01
3.441669296794457722e+01 3.591393914055325354e+02 1.229357010896939134e-01
3.357407570395392327e+01 3.591275869377015511e+02 1.230387364337451606e-01
3.273073863518511217e+01 3.591179256758382508e+02 1.229656902653834816e-01
3.188699121042122542e+01 3.591113603155279748e+02 1.230532984635999555e-01
3.104230030322617750e+01 3.591076087967602462e+02 1.230482857649178446e-01
3.019649941670026294e+01 3.591061854828215019e+02 1.234855013448452610e-01
2.934965245874433748e+01 3.591068272147934408e+02 1.235134666384726659e-01
2.850093871736841322e+01 3.591097462340049447e+02 1.237128186932147655e-01
2.764735788480541601e+01 3.591173290938803575e+02 1.238581347061057242e-01
2.678349124377668744e+01 3.591328470618312281e+02 1.245316441471936847e-01
2.590254437534790100e+01 3.591618466368575469e+02 1.241566839954646034e-01
2.850350344233738298e+01 3.468776426538565829e+02 1.218239091801905233e-01
3.067048749955853282e+01 3.474528894307288738e+02 1.218769304046787572e-01
2.766468365308770316e+01 3.456245844742042550e+02 1.225574355421559652e-01
4.030032004404036883e+01 3.592137444111369859e+02 1.233568838486649999e-01
2.592024013674044980e+01 3.496172027239006184e+02 1.245699912103401669e-01
2.757755700276429067e+01 3.461555130991146143e+02 1.222250706185656066e-01
2.638223876103881693e+01 3.464458144366732881e+02 1.221048809790221401e-01
3.212979582546861224e+01 3.474914317175747556e+02 1.210907238958327664e-01
3.162850225107172264e+01 3.481250095548380727e+02 1.203811793463683000e-01
2.983591758571645514e+01 3.480969062683316224e+02 1.213663435171571242e-01
2.790420373838795953e+01 3.474160270510514010e+02 1.213908791464189257e-01
2.704817926951026763e+01 3.463290571880060043e+02 1.221182774079125066e-01
3.951783338761768505e+01 3.553747482361509356e+02 1.209850621557456013e-01
2.680034611173676495e+01 3.511931271741416936e+02 1.227104265730713656e-01
2.776437661486576403e+01 3.481658816047637401e+02 1.209622877984997957e-01
2.973951083547246554e+01 3.487250776886912718e+02 1.202543505049299966e-01
2.918722211975779146e+01 3.488688435102412200e+02 1.199129197351004456e-01
3.870383340892028912e+01 3.554154337875363581e+02 1.212805660525691220e-01
2.988420336839483227e+01 3.493167053402124793e+02 1.201746536257570636e-01
3.258372523638914231e+01 3.480434536986952594e+02 1.243985111849570807e-01
3.107736555935950662e+01 3.495397375433030334e+02 1.233551661530606219e-01
3.024720865425096861e+01 3.499651115698026729e+02 1.227851057445900618e-01
2.752840846342421344e+01 3.527754141912228647e+02 1.217970983452715955e-01
2.752064869882950049e+01 3.535236430006355022e+02 1.218051995312004060e-01
3.789855854047807782e+01 3.554393661264192588e+02 1.210254463347115450e-01
2.894043671520115524e+01 3.502103852537643434e+02 1.229698076372619658e-01
3.711069352966137558e+01 3.554468233703765350e+02 1.208193449958309823e-01
3.304779750389194248e+01 3.514243727747169714e+02 1.203571113913267238e-01
2.932698869895284588e+01 3.515047578165824689e+02 1.212197740917559940e-01
3.284061313464327725e+01 3.521143584141048564e+02 1.200210618469139956e-01
2.904885310544745636e+01 3.535895112354543244e+02 1.208924318965716865e-01
2.893199919049991209e+01 3.541445753621825361e+02 1.212282181173213597e-01
3.635670138809081209e+01 3.547989486922614901e+02 1.201328524799231412e-01
3.620702067532710089e+01 3.541590248702943882e+02 1.201578363451943632e-01
3.266853438441275159e+01 3.527670246053672827e+02 1.199878751860569553e-01
3.396306964223344949e+01 3.511014767254936260e+02 1.204130982201399996e-01
3.335352449270298791e+01 3.529824824229784213e+02 1.197267763836953186e-01
3.429852389566866577e+01 3.525803683087704599e+02 1.198208446357619944e-01
3.125543819797657363e+01 3.532372257705144420e+02 1.201682202143718042e-01
3.442100506946621152e+01 3.519133099329837364e+02 1.197297417977796347e-01
3.373802469647951341e+01 3.538678972440588382e+02 1.200483025634247192e-01
3.238902308925185736e+01 3.538417872527444956e+02 1.198889217755254449e-01
3.191099030898348232e+01 3.539752836817664274e+02 1.203513420150341268e-01
3.385385272143945201e+01 3.546329414880916602e+02 1.204780561305443531e-01
4.210988234779689066e+01 3.575215594463236926e+02 1.234040572593886331e-01
4.209489594504367460e+01 3.535503883518081807e+02 1.206168790713627453e-01
4.204708274447432359e+01 3.519851530524052237e+02 1.195965605171630808e-01
4.194964842245587278e+01 3.488883271275662992e+02 1.185750236958017650e-01
4.527255318230513126e+01 3.457591573026188030e+02 1.181392927176551644e-01
4.444650320072068439e+01 3.457513942381217475e+02 1.181676483479003614e-01
4.361751681927012214e+01 3.457527678053796194e+02 1.183930042497195190e-01
4.278881802337348006e+01 3.457605132069484739e+02 1.189085551120387940e-01
4.597823935975494436e+01 3.465674709477551119e+02 1.174934689887129208e-01
4.518801312017990313e+01 3.465218740616308537e+02 1.176149910155225992e-01
4.438286102217882956e+01 3.465023902109550704e+02 1.180060383886325226e-01
4.276151253183482481e+01 3.465254494764020592e+02 1.184225823021347462e-01
4.194617889615356887e+01 3.465489941555664473e+02 1.187670615628922816e-01
4.585857181538239757e+01 3.473521868861772646e+02 1.174681954835381237e-01
4.509991944240915984e+01 3.472715245119517817e+02 1.177133945358605216e-01
4.353794307375702033e+01 3.472548961738569346e+02 1.180334519629042261e-01
4.274176330868021267e+01 3.472869426979751779e+02 1.183030259321174033e-01
4.193739324157129289e+01 3.473265085074932017e+02 1.183769026293390453e-01
4.539700372852146870e+01 3.490297414849866868e+02 1.177419572829415950e-01
4.429404922141674916e+01 3.486630644443786764e+02 1.178407927093252233e-01
4.355293115829705641e+01 3.487457887800472918e+02 1.180439418859896006e-01
4.276075404595876250e+01 3.488202437535318836e+02 1.182132092605451268e-01
4.196685310208388842e+01 3.496652497453432602e+02 1.186174087205989630e-01
4.273905395004084085e+01 3.480506641948483093e+02 1.184167716948547611e-01
4.352269094867912713e+01 3.479977636856588674e+02 1.180760633156432843e-01
4.427485498792756857e+01 3.479601527981700428e+02 1.177335405798379531e-01
4.570968995137953073e+01 3.481485027223102975e+02 1.174545155344975250e-01
4.549345252343709944e+01 3.499333959246962991e+02 1.180058782627179254e-01
4.460355518531330432e+01 3.500660622835994786e+02 1.183513980228786816e-01
4.372675392150652840e+01 3.502056980443869634e+02 1.184329973967362393e-01
4.285810596042081499e+01 3.503305750500698537e+02 1.186744888704492767e-01
4.199074961164737374e+01 3.504391511102220420e+02 1.185735643225859642e-01
4.556754364377063382e+01 3.507613503101352990e+02 1.186909075338394015e-01
4.468811542888089150e+01 3.508486767005636011e+02 1.184908767204950614e-01
4.380115449062319044e+01 3.509658113819759251e+02 1.187703179556609534e-01
4.290965440961713284e+01 3.510925352191190427e+02 1.189164378896793994e-01
4.201706789429633204e+01 3.512145409387712220e+02 1.190222069953426748e-01
4.569766012993485305e+01 3.523576394485446031e+02 1.193752323992168796e-01
4.481615995362753324e+01 3.524190115570384592e+02 1.196190373658384820e-01
4.391786545368722727e+01 3.525148356588106253e+02 1.198793490199432238e-01
4.300189537379674931e+01 3.526373663180849007e+02 1.199743263488437656e-01
4.207007613449138717e+01 3.527719585922348529e+02 1.202138780189568462e-01
4.295623654220133858e+01 3.518621413124062656e+02 1.194262610518211226e-01
4.385995144120724376e+01 3.517424819376716982e+02 1.191531763257319132e-01
4.475305090152184562e+01 3.516416228080817064e+02 1.192878410942500855e-01
4.563342259884282726e+01 3.515720620121281854e+02 1.189379262903042800e-01
4.575366531432317174e+01 3.531716527655522668e+02 1.202782600195570206e-01
4.486828357393162037e+01 3.532251616862200194e+02 1.203191468803510022e-01
4.396268171006330761e+01 3.533131741670375732e+02 1.204251794884959176e-01
4.303556306504534490e+01 3.534294488023945746e+02 1.205040274900278374e-01
4.582822901676573935e+01 3.547967136418100722e+02 1.218881169686437532e-01
4.494083585928378000e+01 3.548342128458940579e+02 1.217856064426598439e-01
4.402882806924699821e+01 3.549071987841937812e+02 1.218665221806134041e-01
4.308844685301239963e+01 3.550122850028748189e+02 1.217017803233204631e-01
4.212113350192313277e+01 3.551361428835708125e+02 1.220341147372619173e-01
4.210754130048091781e+01 3.543433963800587208e+02 1.211908856064138756e-01
4.306149285492850254e+01 3.542213968028656268e+02 1.212249121053576850e-01
4.399524110376793828e+01 3.541157291203846853e+02 1.209043021208156821e-01
4.490529802104138923e+01 3.540384389779675871e+02 1.210128170658822389e-01
4.579269117852334148e+01 3.539946298871064982e+02 1.212509867893453441e-01
4.582401950424287662e+01 3.556302726557870528e+02 1.222516188395104397e-01
4.494071308884261384e+01 3.556619486445776488e+02 1.220447437719747036e-01
4.403188723955426553e+01 3.557259580725619799e+02 1.220849644227843256e-01
4.309167083843239254e+01 3.558204296155763586e+02 1.222012913911095233e-01
4.212115368336549182e+01 3.559341740968647514e+02 1.221974329252299152e-01
4.578700505713310065e+01 3.564749586181147265e+02 1.227434017368119606e-01
4.491108841321725720e+01 3.564994348959529020e+02 1.227585462783980369e-01
4.401076231474414158e+01 3.565500035639060457e+02 1.225946734422183187e-01
4.307869585276965552e+01 3.566290137527187767e+02 1.223229442408643175e-01
4.211380427476585453e+01 3.567308484943674216e+02 1.226764327459210352e-01
4.562822924100398581e+01 3.581947259378255239e+02 1.240214027019561627e-01
4.476957782104328487e+01 3.582027116756574401e+02 1.240502653350495227e-01
4.389809436730338632e+01 3.582238354932915740e+02 1.240043483899807980e-01
4.300538508154141937e+01 3.582641931517684384e+02 1.240527920993480387e-01
4.208218836349242054e+01 3.583305279636311980e+02 1.232869000652704050e-01
4.304876341014799124e+01 3.574404796863324236e+02 1.228357778971985587e-01
4.396110083041030236e+01 3.573835870948114461e+02 1.231026773220480625e-01
4.484722087523553569e+01 3.573501825522934610e+02 1.233892485579946019e-01
4.571449481645256441e+01 3.573342601809011398e+02 1.232351144364377954e-01
4.549191200666882651e+01 3.590896351468742296e+02 1.248793324738551175e-01
4.464274586462623517e+01 3.590927138974515742e+02 1.246933863582330437e-01
4.378789191940650483e+01 3.591015481242512237e+02 1.248122389852551195e-01
4.292262939527986987e+01 3.591196985031436384e+02 1.247887707561380760e-01
4.195814817327114099e+01 3.457713532428401777e+02 1.190815023596871608e-01
4.204094422241742279e+01 3.591530476937612661e+02 1.232046262318078761e-01
4.193790618656508684e+01 3.481064888819616385e+02 1.185094196746808853e-01
4.357298814844794776e+01 3.465053777491725668e+02 1.181691985716503135e-01
4.280197800559135857e+01 3.495794035121307957e+02 1.184027215560348456e-01
4.432240078438537978e+01 3.472429706460716261e+02 1.178960224537990847e-01
4.363432964255860469e+01 3.494769525342323959e+02 1.182327538531137562e-01
4.500794756412794584e+01 3.479830801140348626e+02 1.176626620173067267e-01
4.447415682214037957e+01 3.493379754697318162e+02 1.181691635819697578e-01
4.489608182902171052e+01 3.485570372346300019e+02 1.176312629564387202e-01
4.025591414365936771e+01 3.411983002984358109e+02 1.209385486013263566e-01
2.590747201086206886e+01 3.424902446544616623e+02 1.240892095902836334e-01
4.026365372681166832e+01 3.388184485181359378e+02 1.222306480918149418e-01
2.596577619789472635e+01 3.400799550543143823e+02 1.180722192263448239e-01
4.023296111652706486e+01 3.356689369439668553e+02 1.243814851846246766e-01
2.596959385407806309e+01 3.369079339972403204e+02 1.200439140448281566e-01
4.024098828523328564e+01 3.332943752194782405e+02 1.243685534933933606e-01
2.595512039631864809e+01 3.345200301299713601e+02 1.241309324376556056e-01
4.026905226264801740e+01 3.317170017077312991e+02 1.237954608698845216e-01
2.593481618349863282e+01 3.321338460228174654e+02 1.244758776668021538e-01
4.024135827834355439e+01 3.270474871619704231e+02 1.207758295714580765e-01
2.584508276353457745e+01 3.282420651466340473e+02 1.229089874315843628e-01
4.020953718907261987e+01 3.246721534958618349e+02 1.196227048308418223e-01
2.588293810407682116e+01 3.258810757493600363e+02 1.219099397183543987e-01
4.021310930437369535e+01 3.190938801323956682e+02 1.219876661640864751e-01
2.593555616971919875e+01 3.203161747913100612e+02 1.203603605092388451e-01
4.022852792635116970e+01 3.175059730951990673e+02 1.226270917478535644e-01
2.590554131954117167e+01 3.179402679504728439e+02 1.197814419828682753e-01
4.028894611947299609e+01 3.127855078146897654e+02 1.243031623853477208e-01
2.586563251723690016e+01 3.140605834999839203e+02 1.185062090521551981e-01
4.022386769494853809e+01 3.104542529964049322e+02 1.246620627875176801e-01
2.592013754774172085e+01 3.116898371290375849e+02 1.190510655665815432e-01
4.019578185430454198e+01 3.088703262915440746e+02 1.242872662587353599e-01
2.593740445348373314e+01 3.092995833398435366e+02 1.205826541935323404e-01
4.016654903501871132e+01 3.048732831091965068e+02 1.243910683827539193e-01
2.584972113170798380e+01 3.053441768451580174e+02 1.241696526203526219e-01
4.016429039525914391e+01 3.032781645577395011e+02 1.245681025794209557e-01
2.576791060966454339e+01 3.037829997133148936e+02 1.249797736607308751e-01
2.562295067263064396e+01 3.014860791919290364e+02 1.233799558147785219e-01
2.577589741548598212e+01 3.441319070108946789e+02 1.224301801813982016e-01
2.651315745953760228e+01 3.441043121061220518e+02 1.233590913283137552e-01
2.789504640890852016e+01 3.441680249490974575e+02 1.235694938802845422e-01
2.585432081878352051e+01 3.433067839179836938e+02 1.243365693247812792e-01
2.668072061203585577e+01 3.432499228739750379e+02 1.224949191465458387e-01
2.748350979949173478e+01 3.432549726169182804e+02 1.231856991564762860e-01
2.824655499975611050e+01 3.433630831876293428e+02 1.241555206392229160e-01
3.177026006591481888e+01 3.434039966035999214e+02 1.230725743571861180e-01
3.297736090641583928e+01 3.430558516658697386e+02 1.247910436752567853e-01
3.383102414653519929e+01 3.431783687917420593e+02 1.242772518436282836e-01
3.467571505373028629e+01 3.432523454206170186e+02 1.243345195511153661e-01
3.547587729010319890e+01 3.433323559848486184e+02 1.230002855415477658e-01
3.621685408312625043e+01 3.434281755259676174e+02 1.223827576607851575e-01
3.693904531686825266e+01 3.434836345612294508e+02 1.218845908830212404e-01
3.766080433138598949e+01 3.433701127060771228e+02 1.214176133445192818e-01
3.841307264142005806e+01 3.431700021997211252e+02 1.216245139317942425e-01
3.920808188283885443e+01 3.428576745058256279e+02 1.213073510673115252e-01
4.033273480407464717e+01 3.430110736985052995e+02 1.200742950765499029e-01
4.062220395926264160e+01 3.434868111488484033e+02 1.189539126153920240e-01
3.954811396012034663e+01 3.437915708971646040e+02 1.208347211986011832e-01
3.858825092484261887e+01 3.440212162191141374e+02 1.209983156006051996e-01
3.774113656277519624e+01 3.441531818951904711e+02 1.214253370879572469e-01
3.692147064412997537e+01 3.442160089888830043e+02 1.216068614068114839e-01
3.610673236099891881e+01 3.442105028915779030e+02 1.221805900932571437e-01
3.529920053458396012e+01 3.441683690460450862e+02 1.231394092877445556e-01
3.446951621158449086e+01 3.441161525945541371e+02 1.246487260635126409e-01
3.358481223129950166e+01 3.440601145392075182e+02 1.238207191751888453e-01
3.253061608898222801e+01 3.439681158324657417e+02 1.227401077021266773e-01
2.679086083381869443e+01 3.423885131699938142e+02 1.245554525633735948e-01
2.767024700403684534e+01 3.423050292302988282e+02 1.219269215405751061e-01
2.864698508871705229e+01 3.421877622582792355e+02 1.222590716822264806e-01
2.988603147071700050e+01 3.417019187772294799e+02 1.213890734276827643e-01
3.097531136882314939e+01 3.420532761054234925e+02 1.223007491686775028e-01
3.169001024208201045e+01 3.420828498709404926e+02 1.218787348722486230e-01
3.327253636443647622e+01 3.422627177617612233e+02 1.245351028336483534e-01
3.407976042385513438e+01 3.423501433822630702e+02 1.244438139118631131e-01
3.490092481459699059e+01 3.424200160735398981e+02 1.234215449644807255e-01
3.571162008210480820e+01 3.425038071883620887e+02 1.228185498437733142e-01
3.643580255149491620e+01 3.426561692695510146e+02 1.221344379186649620e-01
3.745154631893292674e+01 3.426111840875647090e+02 1.218451390027166792e-01
3.815760080770615303e+01 3.423716430459685398e+02 1.218150940120642650e-01
3.889085819901929852e+01 3.421399174404964469e+02 1.216828922833667614e-01
3.950728017504036416e+01 3.418638595271474401e+02 1.216991876577219467e-01
4.009167588379301606e+01 3.421912742984138163e+02 1.209137502697165967e-01
2.595436191044257868e+01 3.408759081232879566e+02 1.214276579211866630e-01
2.687429428018680255e+01 3.407231728086156863e+02 1.213434188705139194e-01
2.773844682498260994e+01 3.405931449351780316e+02 1.223015550484541220e-01
2.855002503059449026e+01 3.404844361011153069e+02 1.218000781242932345e-01
2.914273549360724402e+01 3.410693757326526452e+02 1.199227388962287866e-01
3.015765854905518495e+01 3.405575084070491130e+02 1.226812683788858771e-01
3.112409064382725177e+01 3.402748978765571337e+02 1.236436717247642036e-01
3.198701212063791743e+01 3.407782270607588657e+02 1.243835100203386779e-01
3.280840187081967940e+01 3.407445362118154435e+02 1.239769554915380739e-01
3.362570656070661101e+01 3.407478427122138100e+02 1.232139361916261971e-01
3.443482094856142339e+01 3.407761026144671064e+02 1.225050436563094453e-01
3.525148992301338069e+01 3.408207428982807983e+02 1.223612442501905567e-01
3.609143819124943064e+01 3.408710876029604719e+02 1.218184421957812374e-01
3.694606677702925879e+01 3.408897354217589850e+02 1.219881618739566409e-01
3.780274714278425563e+01 3.407847264454272249e+02 1.221423602088862054e-01
3.863608598864119159e+01 3.406375961511516834e+02 1.222855998062505056e-01
3.946262873377706626e+01 3.404924540166116458e+02 1.223066789696423545e-01
4.028323813485352645e+01 3.403804874958292430e+02 1.212630615522271998e-01
3.950198422820276534e+01 3.412280398917964703e+02 1.216918059459834445e-01
3.872189916342314575e+01 3.413847935337891499e+02 1.220565533617457149e-01
3.790633848651515336e+01 3.415837330290996192e+02 1.219247376963375068e-01
3.693900327219661506e+01 3.418506719584773350e+02 1.219288406003903452e-01
3.596353830017314834e+01 3.416959083509999573e+02 1.222358726585503069e-01
3.510102717935751571e+01 3.416184776572354167e+02 1.226096996058612387e-01
3.427791191585234998e+01 3.415613669278772591e+02 1.232467368008934860e-01
3.347327444463194013e+01 3.415091054186583506e+02 1.242873716874089429e-01
3.267101838361222121e+01 3.414655311478255726e+02 1.249226177761681850e-01
3.188313150956625464e+01 3.414513196678482814e+02 1.241277811139974430e-01
3.118767059625510996e+01 3.414673781835364821e+02 1.216468710674326048e-01
3.046753282427510356e+01 3.411252637189922439e+02 1.221003077761361050e-01
2.948173999911426435e+01 3.413888599489052922e+02 1.206637008963434843e-01
2.847673275902179313e+01 3.412841276916107063e+02 1.201152892212883211e-01
2.768895015576149632e+01 3.414284954139108663e+02 1.226565126900135139e-01
2.683268014600149698e+01 3.415512401868194843e+02 1.238687427799988056e-01
2.592972541465856295e+01 3.416854989332091463e+02 1.235670608636763590e-01
2.689053193236748740e+01 3.399216123445779090e+02 1.186276919839940602e-01
2.777248450934147428e+01 3.397922957854686388e+02 1.200247991310265938e-01
2.862169269605569610e+01 3.396976531063871221e+02 1.210477945432649055e-01
2.946279130650730593e+01 3.396437661369335501e+02 1.213191793297579563e-01
3.026755322995575526e+01 3.396269119699582575e+02 1.217050885605596017e-01
3.113078247376272856e+01 3.395328666355380847e+02 1.215182445172018760e-01
3.201277709540831040e+01 3.394302319567728432e+02 1.212717699350019940e-01
3.285917165269752616e+01 3.400552438579804857e+02 1.224963498446288851e-01
3.369448155276016621e+01 3.400267373785860059e+02 1.217946876209003854e-01
3.451240177663963493e+01 3.400265538528597062e+02 1.215989675240979201e-01
3.532315758847458653e+01 3.400420778488140741e+02 1.215734949659332403e-01
3.613483838308523843e+01 3.400539078334982719e+02 1.216122542222268371e-01
3.694380813726969137e+01 3.400374673220719046e+02 1.216873326459494836e-01
3.775985989594221337e+01 3.399676573802260009e+02 1.224945215611882021e-01
3.858814833584384729e+01 3.398561377470978755e+02 1.225745695901127863e-01
3.942978175451852962e+01 3.397242885058138882e+02 1.225065214121070778e-01
4.027931788967141813e+01 3.395941508315850115e+02 1.217777590180077196e-01
2.597560960569383326e+01 3.384895452313144233e+02 1.157852901956312047e-01
2.691927366988878134e+01 3.383189174879852885e+02 1.177099089648959152e-01
2.783046074793546154e+01 3.381798864344468143e+02 1.202055295437543248e-01
2.871561544710021607e+01 3.380748226981691573e+02 1.205310786070941664e-01
2.957759344147968150e+01 3.380012522434092830e+02 1.202823037279154017e-01
3.041394941297229337e+01 3.379552648924850473e+02 1.198703747109419598e-01
3.124342855797426211e+01 3.379230351275040789e+02 1.197442263689197234e-01
3.207760997905053557e+01 3.378917329013131052e+02 1.199156559015602808e-01
3.291203525922221473e+01 3.378558284901637876e+02 1.201526698777991009e-01
3.372968976077700631e+01 3.378167976548152183e+02 1.205429321023626654e-01
3.455233244217313171e+01 3.385318024981642679e+02 1.202488322033963136e-01
3.534867702236270759e+01 3.385022516069820426e+02 1.205806084269750028e-01
3.613274455843843214e+01 3.384738122307056187e+02 1.213489534575421663e-01
3.691600988217959411e+01 3.384368526221167599e+02 1.219181737578281660e-01
3.771132857238156788e+01 3.383790194084286895e+02 1.225020752164039245e-01
3.853239037412470225e+01 3.382887199992227352e+02 1.230026825655767264e-01
3.938204927971872138e+01 3.381678596223952695e+02 1.236189075642471213e-01
4.025480584611536017e+01 3.380296892155238879e+02 1.228194831652359570e-01
3.940656132327474381e+01 3.389454965719403958e+02 1.228441572191121545e-01
3.856297871362362173e+01 3.390622301362691928e+02 1.227341701920124650e-01
3.773900237524362211e+01 3.391560697956662125e+02 1.224537681935305433e-01
3.693612909844451764e+01 3.392174381937532530e+02 1.217761394098789557e-01
3.614346090434165149e+01 3.392507979951865877e+02 1.213030290162003949e-01
3.534742409114834061e+01 3.392684178806164823e+02 1.208394413718923421e-01
3.454165645915472993e+01 3.392839542876172914e+02 1.206695226646695568e-01
3.371944599698285572e+01 3.393111255731500933e+02 1.206422261751055186e-01
3.289485244282342791e+01 3.386193610553166309e+02 1.193144643638265612e-01
3.203661137885779908e+01 3.386764350097683405e+02 1.191870470616100824e-01
3.118266055318454022e+01 3.387338046934210638e+02 1.191796858221977062e-01
3.034739269779353066e+01 3.387818331978354536e+02 1.189357517144225135e-01
2.952392930440733210e+01 3.388239312194264699e+02 1.190808858165024742e-01
2.867131381750480301e+01 3.388916351718231112e+02 1.189112401319505213e-01
2.779783912811683066e+01 3.389929810151110132e+02 1.189090579826188460e-01
2.689755339252849353e+01 3.391291189167355355e+02 1.168715308073802750e-01
2.596302479458372403e+01 3.392931896374248595e+02 1.158854196472759585e-01
2.597174990483886248e+01 3.376999892054170118e+02 1.178193872346349619e-01
2.691680985213167787e+01 3.375252921808383917e+02 1.200572870481988741e-01
2.783029593282269332e+01 3.373821140702547154e+02 1.230092669709216407e-01
2.872081048672591663e+01 3.372702609393768398e+02 1.233154444468863159e-01
2.959196431024032847e+01 3.371893000566710725e+02 1.229836047361845819e-01
3.044250615393841741e+01 3.371371236988534292e+02 1.222948768124177826e-01
3.127742587944839414e+01 3.371072840584943151e+02 1.217926057733200035e-01
3.210220443016295633e+01 3.370874185789417652e+02 1.215313173352564058e-01
3.291667530918248019e+01 3.370654050448519001e+02 1.214134017304343144e-01
3.371843860665079973e+01 3.370359336645284998e+02 1.214534151579840654e-01
3.451102607498413022e+01 3.369982431906869351e+02 1.216017460852896054e-01
3.532336276647212259e+01 3.377367247086996827e+02 1.211630325085678861e-01
3.610492612190597583e+01 3.376974778296356590e+02 1.214575656446811591e-01
3.688977400708704124e+01 3.376518383604415590e+02 1.222801594213257237e-01
3.768839740847854358e+01 3.375888521746488777e+02 1.227466649106662422e-01
3.851362667807291018e+01 3.374967171662819965e+02 1.233934903839952052e-01
3.936930133528270659e+01 3.373761874340248141e+02 1.235254307077769953e-01
4.024854287183045898e+01 3.372397093488120277e+02 1.237302272593041180e-01
2.690905008753700400e+01 3.367321281734106719e+02 1.220761235934253175e-01
2.782216617511771872e+01 3.365831842572126220e+02 1.244892812255579823e-01
2.871541026910271910e+01 3.364638308990911924e+02 1.242017613498421630e-01
2.959401777200239536e+01 3.363738522739832320e+02 1.248999497983396406e-01
3.045812995391343492e+01 3.363122233362764177e+02 1.243245589824306246e-01
3.130284104255088806e+01 3.362764213672188021e+02 1.235073567440883868e-01
3.212351266974135200e+01 3.362580617801792755e+02 1.228847871558036847e-01
3.292262883468425372e+01 3.362446544287788015e+02 1.224538423414213567e-01
3.370858501740928403e+01 3.362260105736940545e+02 1.222628304814128014e-01
3.448743733241694542e+01 3.361967915091880172e+02 1.225294608694480342e-01
3.529320496441059163e+01 3.369551637128335528e+02 1.217865776960439933e-01
3.607608179538595294e+01 3.369107283101698158e+02 1.220682448825112787e-01
3.686548732297092101e+01 3.368590641747202881e+02 1.227796439559108443e-01
3.766975648286789635e+01 3.367921432200852223e+02 1.233077197030917199e-01
3.849982929863320180e+01 3.367009156218384760e+02 1.238010032182694370e-01
3.935967310548109310e+01 3.365840892951067076e+02 1.241750799006001577e-01
4.024392468509942233e+01 3.364494985159420253e+02 1.239064062637351138e-01
2.596099151426405882e+01 3.353156858299429359e+02 1.234180634847513169e-01
2.689180504502422053e+01 3.351270014468536260e+02 1.240987796462462850e-01
2.779367166026559133e+01 3.349702789061908561e+02 1.245014899905612371e-01
2.868186534829525058e+01 3.348408122591026768e+02 1.229231676836189946e-01
2.956597397603003685e+01 3.347345874250930819e+02 1.211387644906329608e-01
3.044993797009446013e+01 3.346409875168287158e+02 1.231272977373038258e-01
3.133092688319484154e+01 3.345508278973281335e+02 1.245066405427581596e-01
3.218038061079133172e+01 3.344838232492780890e+02 1.246694711055829213e-01
3.297296807912469774e+01 3.345016506996934140e+02 1.239286814725659158e-01
3.374301287632081880e+01 3.345249552936442683e+02 1.239152334426415619e-01
3.524777317404195287e+01 3.353537450602971717e+02 1.232128021149099945e-01
3.602956188891574385e+01 3.353155947033386610e+02 1.233740730959772269e-01
3.682557683887974775e+01 3.352674850824784585e+02 1.235907759446251974e-01
3.764047993712357254e+01 3.352034277572530527e+02 1.239518260439228803e-01
3.848003971259381473e+01 3.351160492097112638e+02 1.246472487626999609e-01
3.934493224361018804e+01 3.350048110867893456e+02 1.247547959507443183e-01
4.023452181473771105e+01 3.348735606111206948e+02 1.242001705853641585e-01
3.935328736075506129e+01 3.357932065320852644e+02 1.243968861085153199e-01
3.849352764325039544e+01 3.359009002871028429e+02 1.244148162934857194e-01
3.765832033218651986e+01 3.359885450786848082e+02 1.237339925008944796e-01
3.684725675335530326e+01 3.360567563832985343e+02 1.231094635840054019e-01
3.605335580948046470e+01 3.361108002171050089e+02 1.229000952856194040e-01
3.526937068096110295e+01 3.361546213582347491e+02 1.224993551589136642e-01
3.447949257126710165e+01 3.353766761759384281e+02 1.230871842685462431e-01
3.371437372779828934e+01 3.353859326327753365e+02 1.233116940106589177e-01
3.293790282299137573e+01 3.353863694949512251e+02 1.232985734798040800e-01
3.214624033743369580e+01 3.353899752761201398e+02 1.237014568228636396e-01
3.132039385205994009e+01 3.354182447256713431e+02 1.245017663020843157e-01
3.046055172699890434e+01 3.354739527842668849e+02 1.242219582734702399e-01
2.958465526452541994e+01 3.355528854864322739e+02 1.229558646324136334e-01
2.870044404779186564e+01 3.356560856693162123e+02 1.230880129163847425e-01
2.780635906037443306e+01 3.357862344121296587e+02 1.249908002270723184e-01
2.689537716032529246e+01 3.359433075757806932e+02 1.232841920886272452e-01
2.595957544972382536e+01 3.361237274982719896e+02 1.217445408236494386e-01
2.687831711436763982e+01 3.343308355465136401e+02 1.245522454926543815e-01
2.777381984811220406e+01 3.341720673224386360e+02 1.245919826367093974e-01
2.865285788844932213e+01 3.340416416867303155e+02 1.232588996276950816e-01
2.952403189340609657e+01 3.339297654608870403e+02 1.207815276742127131e-01
3.039165396450420786e+01 3.338177890260556069e+02 1.226172583860460352e-01
3.126365036323791458e+01 3.336753300984166799e+02 1.241313393563024253e-01
3.220665853055552219e+01 3.334409655654764606e+02 1.249871584087378362e-01
3.449981696552951860e+01 3.345313338270436816e+02 1.234845976666230222e-01
3.526101556381622260e+01 3.345223677693016953e+02 1.238975244602323611e-01
3.603740406106678051e+01 3.344981009183355241e+02 1.240141919023756006e-01
3.683175740560832168e+01 3.344578424156348433e+02 1.241984587032544662e-01
3.764645532585460330e+01 3.343974983245281010e+02 1.246303181314419861e-01
3.848681395008568984e+01 3.343126027345620059e+02 1.249952578783063428e-01
3.935226147076745917e+01 3.342049063224243923e+02 1.249853028367351598e-01
4.024020793612798741e+01 3.340794193966884791e+02 1.243901908470735201e-01
2.594358333842540532e+01 3.329269294745250249e+02 1.243336306223977589e-01
2.685733682322791793e+01 3.327204157549492720e+02 1.243535429044578394e-01
2.773906235897513994e+01 3.325530131643128016e+02 1.244715738423081974e-01
2.859584699551576392e+01 3.324208493612891289e+02 1.248853039960454020e-01
2.942407320930340475e+01 3.323152352212367191e+02 1.245573222354340731e-01
3.021721398551530768e+01 3.322143144831654809e+02 1.246392533234194355e-01
3.095899130908606267e+01 3.320952522614327336e+02 1.249523682169552813e-01
3.177982775138929128e+01 3.326707415158131198e+02 1.248429850413873554e-01
3.226032266762787515e+01 3.323985140016720266e+02 1.244319804282707637e-01
3.328228736467922033e+01 3.327330432208876232e+02 1.245946134444233244e-01
3.463925391449905078e+01 3.328220606970635913e+02 1.242405609400560745e-01
3.536721535897459034e+01 3.328430055408044836e+02 1.244136130267338436e-01
3.612028251776945353e+01 3.328474238889576782e+02 1.243645743758094030e-01
3.689332594094574347e+01 3.328320291208495405e+02 1.244886701431243969e-01
3.769110676711791541e+01 3.327904543234383823e+02 1.249904236294600013e-01
3.852243251409755942e+01 3.327185430841230982e+02 1.249571054590148805e-01
3.938112597872988374e+01 3.326209060520998264e+02 1.249072796259423218e-01
4.025706280408806492e+01 3.325019986206638123e+02 1.244543944720743200e-01
3.936564681242526831e+01 3.334110901864261791e+02 1.247902007792777157e-01
3.850543469425393539e+01 3.335101543864726636e+02 1.247685529940156385e-01
3.766823614754202509e+01 3.335878254218524717e+02 1.246640348641346735e-01
3.685902085247534643e+01 3.336401523246753413e+02 1.244144602390827026e-01
3.607302262507868562e+01 3.336698346076796042e+02 1.244588539443532010e-01
3.530767842216997110e+01 3.336809537938945027e+02 1.242010947791396813e-01
3.456134513798220809e+01 3.336753454101354350e+02 1.240451742717362804e-01
3.382431045337049369e+01 3.336501940055056252e+02 1.240842478965851065e-01
3.108181893097778214e+01 3.328706384654674366e+02 1.247391659757840776e-01
3.029383114971994573e+01 3.330094275096940919e+02 1.235859809993582054e-01
2.946845724645521614e+01 3.331219894678264382e+02 1.229463458152002808e-01
2.862080975795162985e+01 3.332372457065830531e+02 1.239216063772357601e-01
2.775253010818931898e+01 3.333744919859126412e+02 1.248282250908732405e-01
2.686174983196146115e+01 3.335421021761015936e+02 1.247074224514892610e-01
2.594317298243037229e+01 3.337379488234528253e+02 1.244098603472633541e-01
2.684325354002116981e+01 3.319243463020716263e+02 1.238409059582545463e-01
2.772362523734215856e+01 3.317516124400228250e+02 1.239386412918230401e-01
2.857500797447272234e+01 3.316185293189884646e+02 1.240776496310422861e-01
2.938652395397060602e+01 3.315215010702561358e+02 1.241158547798033862e-01
3.015810926793498936e+01 3.314412790443776657e+02 1.241112670499836396e-01
3.088381207265092598e+01 3.313669196142952273e+02 1.241146603649787017e-01
3.163365524602579626e+01 3.319522566691303496e+02 1.243800987250256035e-01
3.225453395723886274e+01 3.318473640119777883e+02 1.242674523389541569e-01
3.341624337025601221e+01 3.318982651224273468e+02 1.238275586943961976e-01
3.405147108700050751e+01 3.319195680774964217e+02 1.239506697793109208e-01
3.546778957706985125e+01 3.319843169723744722e+02 1.243739043705033992e-01
3.621143368406064411e+01 3.320036181084141731e+02 1.243705099973067135e-01
3.696817554715535437e+01 3.320070837007203863e+02 1.244876751388687836e-01
3.774916373148140281e+01 3.319840670138880228e+02 1.247943972887514824e-01
3.857078052288996162e+01 3.319226818785343198e+02 1.249349958117750015e-01
3.941832542239478698e+01 3.318294695143667354e+02 1.248444444408971649e-01
2.588527915139275137e+01 3.297762019622698517e+02 1.233616267203473255e-01
2.681535269593235071e+01 3.303157241510701851e+02 1.231135181896030467e-01
2.771596637995935453e+01 3.301151568621136221e+02 1.226973892375616410e-01
2.859299300320603265e+01 3.299810480116654503e+02 1.226626962466775550e-01
2.940678780390588898e+01 3.299283658134629604e+02 1.223318966286251197e-01
3.018789875867311423e+01 3.299240308210335115e+02 1.226064783371282468e-01
3.105517269989015006e+01 3.292487710585584750e+02 1.217911606248532064e-01
3.183252654280117611e+01 3.293396665093466140e+02 1.220902580287901162e-01
3.267335774914128876e+01 3.295228569923751252e+02 1.225635235581171434e-01
3.354670966808812693e+01 3.301694258709247833e+02 1.228541855031795582e-01
3.420655201738740914e+01 3.302193690078897816e+02 1.228923322142912861e-01
3.492987173011578506e+01 3.302506377916535030e+02 1.232261498960156021e-01
3.569238380394399002e+01 3.302664708140262064e+02 1.234684329026441568e-01
3.721884251579618308e+01 3.303411166477711731e+02 1.240576710731079446e-01
3.790933711249528670e+01 3.304419174292523849e+02 1.242458080102744611e-01
3.867365374362953645e+01 3.303925787246532195e+02 1.245369212043675594e-01
3.947439115111021124e+01 3.295154020061112305e+02 1.232402204316326855e-01
4.030122316358682610e+01 3.301453582575330756e+02 1.228990438799576201e-01
4.029106012556219696e+01 3.309270117929472690e+02 1.234216349429124032e-01
3.947728718809160853e+01 3.302773348556949031e+02 1.241434647370635996e-01
3.862783177870822016e+01 3.311435195987926363e+02 1.246668750452477048e-01
3.782512331702187680e+01 3.311928024155960770e+02 1.246287861465867619e-01
3.707242615133727526e+01 3.311796488613558154e+02 1.246908215967329203e-01
3.633064882776652382e+01 3.311485782292573390e+02 1.241423692825969621e-01
3.484140974102163568e+01 3.310899698418961066e+02 1.239013964751393415e-01
3.411913609972323513e+01 3.310521599939897328e+02 1.235578807941283136e-01
3.336943587823190427e+01 3.310139990772584611e+02 1.236181368481680809e-01
3.202864643626558916e+01 3.306576441444404963e+02 1.231725122363923203e-01
3.226566065913711157e+01 3.301939538993840983e+02 1.230249227121231609e-01
3.087208833641565064e+01 3.306534688057258791e+02 1.232606035528789196e-01
3.014439597783850644e+01 3.306771618487564410e+02 1.232781322005331442e-01
2.937482208096455949e+01 3.307264968309943924e+02 1.233016128456660004e-01
2.856790578854221252e+01 3.308109125353291233e+02 1.231938887399252336e-01
2.771223113133241611e+01 3.309487147932280209e+02 1.232009400092727025e-01
2.682586386383802690e+01 3.311352154751796206e+02 1.234429700119858420e-01
2.590919584239860640e+01 3.305571456459651358e+02 1.236659767871566423e-01
2.586097228583422591e+01 3.290132042962614491e+02 1.230156734117804213e-01
2.678626282853005591e+01 3.295426799021499278e+02 1.227126540320495063e-01
2.771331924743401842e+01 3.293171358118419221e+02 1.220621125847520666e-01
2.864070361477661208e+01 3.291447132026614213e+02 1.219566440327093937e-01
2.947457558706971881e+01 3.291352990009143582e+02 1.217684540605836058e-01
3.026490441564352096e+01 3.291943947962068933e+02 1.220161925205542203e-01
3.115874386217868519e+01 3.285511022974922639e+02 1.217280082147629977e-01
3.193106916236363446e+01 3.286025342543340457e+02 1.219492010966854445e-01
3.271086664158935520e+01 3.286499686560942450e+02 1.220910765964833833e-01
3.350117360693389656e+01 3.294175499519280379e+02 1.227902382735527459e-01
3.424210835528531760e+01 3.294149630257883246e+02 1.225038427534070745e-01
3.499492997319791243e+01 3.294232462827694121e+02 1.230452429669452452e-01
3.578371996679031497e+01 3.294209597061262116e+02 1.232678031281568415e-01
3.662251957459762508e+01 3.294050641699957396e+02 1.233890629063455202e-01
3.755897718207639713e+01 3.293893835856204646e+02 1.236196721315019204e-01
3.803737995545507999e+01 3.298219391001267127e+02 1.239664737070336337e-01
3.942633240965859187e+01 3.287777016361531537e+02 1.230941074610598235e-01
4.030356252911590786e+01 3.293606701408957065e+02 1.223034524309429133e-01
2.674276004769544812e+01 3.288054048628880537e+02 1.222855340312446332e-01
2.822729854015292617e+01 3.277351574429135326e+02 1.211575167735895603e-01
2.870822567561580385e+01 3.282075379348489719e+02 1.216509337613035646e-01
2.963495414608109968e+01 3.283103075137494216e+02 1.215382057577051034e-01
3.038405901502226314e+01 3.284886913522885834e+02 1.214806024245660837e-01
3.120764517884959588e+01 3.278350305357651564e+02 1.215804205478059202e-01
3.196679031537426852e+01 3.278339308942458388e+02 1.212245675941153455e-01
3.273502887347748214e+01 3.278408251812984417e+02 1.217639313583140370e-01
3.348799512506047904e+01 3.286349285271391523e+02 1.223208600690344344e-01
3.425873786380552843e+01 3.286203741087756498e+02 1.223524245925972365e-01
3.503336216663478098e+01 3.286100066019733390e+02 1.224964487966900412e-01
3.583387421467558909e+01 3.285907714072128556e+02 1.228932774951323192e-01
3.667343230835896861e+01 3.285489636022632567e+02 1.229989665504973573e-01
3.754587942597248684e+01 3.284593272995493862e+02 1.231053427725828375e-01
3.846205636564735642e+01 3.282551515996606781e+02 1.229760131137498796e-01
3.937492523055895077e+01 3.280298557848850578e+02 1.226700018407586856e-01
4.026379667869517220e+01 3.278198354759976496e+02 1.210824601976327186e-01
2.586421477090976495e+01 3.266686570276831389e+02 1.222303134030187227e-01
2.672877935348746803e+01 3.265216350707792117e+02 1.212738967052155170e-01
2.759028476575790023e+01 3.264116537600144738e+02 1.209327561030534015e-01
2.846749470377285363e+01 3.263588940758590979e+02 1.208113300309975047e-01
2.932961565003585491e+01 3.263849947330485861e+02 1.208074929817376797e-01
3.019062829875485221e+01 3.264142409463270269e+02 1.207911203326261645e-01
3.108576103938911572e+01 3.263578345445292825e+02 1.208791476556291405e-01
3.193882892695830833e+01 3.263043218510711085e+02 1.208320715869797418e-01
3.273968910488015638e+01 3.262695034524520565e+02 1.210910425358542736e-01
3.351681758835127312e+01 3.262419687687886949e+02 1.209542727918199029e-01
3.428244937681385096e+01 3.270197193760201344e+02 1.214354133495515603e-01
3.506325256458481476e+01 3.269943610833439038e+02 1.216537696134116636e-01
3.586286149307915139e+01 3.269550043811935893e+02 1.216202303597941625e-01
3.668889129322121789e+01 3.268907596986614408e+02 1.217742209837666401e-01
3.754425818343470667e+01 3.267892294855432169e+02 1.219850827997401993e-01
3.842588281197006950e+01 3.266439878628704605e+02 1.218398943495156844e-01
3.932319178480749144e+01 3.264602941658230293e+02 1.215484860273176038e-01
4.022700759102530554e+01 3.262551858431145320e+02 1.202463465984425217e-01
3.934183271041814578e+01 3.272529301305225431e+02 1.218595318380465559e-01
3.843906297563034258e+01 3.274456153947025427e+02 1.225818820735861403e-01
3.754932877083241749e+01 3.276007393544763318e+02 1.226029566922323955e-01
3.669012236120632053e+01 3.277015810973657608e+02 1.224718702758832434e-01
3.585904215510895199e+01 3.277610749162671482e+02 1.221600849558666380e-01
3.505686850164560298e+01 3.277948596852618834e+02 1.222362026841858351e-01
3.427518237577061200e+01 3.278163761246900663e+02 1.219891463076885202e-01
3.350263171614576407e+01 3.278323286166372554e+02 1.217034718595436799e-01
3.274092185465211458e+01 3.270540769955031806e+02 1.212522521018740834e-01
3.194991526597178222e+01 3.270760865357810303e+02 1.213548309316075657e-01
3.110670096764410530e+01 3.271376129459094955e+02 1.213567578544149234e-01
3.010038025201013312e+01 3.273791265872310419e+02 1.211816540234673251e-01
