4.281975617454030925e+01 2.397345133940177675e+02 7.039942438223289400e+01
4.281975617454030925e+01 2.389380534519567902e+02 7.045042469909907368e+01
4.281975617454030925e+01 2.381415924354594722e+02 7.046296727327990084e+01
4.281975617454030925e+01 2.373451330200340124e+02 7.049168639913892775e+01
4.281975617454030925e+01 2.365486722448804926e+02 7.051383096179301901e+01
4.281975617454030925e+01 2.357522131324427903e+02 7.057572018520505708e+01
4.281975617454030925e+01 2.349557534173832778e+02 7.060999405738692758e+01
4.281975617454030925e+01 2.341592919530772008e+02 7.064173990930720493e+01
4.281975617454030925e+01 2.333628320779596663e+02 7.071476469575924284e+01
4.281975617454030925e+01 2.325663705771988816e+02 7.072007440884067364e+01
4.281975617454030925e+01 2.317699118962098055e+02 7.072603945738779885e+01
4.281975617454030925e+01 2.309734516696036337e+02 7.076123341427222613e+01
4.281975617454030925e+01 2.301769914626933655e+02 7.077861334023816653e+01
4.281975617454030925e+01 2.293805322768739074e+02 7.077618940103172918e+01
4.281975617454030925e+01 2.285840705252784346e+02 7.078909814811322576e+01
4.281975617454030925e+01 2.277876106945566903e+02 7.078681657358896473e+01
4.281975617454030925e+01 2.269911515643165671e+02 7.073382823554680954e+01
4.281975617454030925e+01 2.261946874803456922e+02 7.068578240830481718e+01
4.281975617454030925e+01 2.253982293195803095e+02 7.065296461674273587e+01
4.281975617454030925e+01 2.246017706804196905e+02 7.062631616157716508e+01
4.281975617454030925e+01 2.238053125196542510e+02 7.054656238460876239e+01
4.281975617454030925e+01 2.230088484356832907e+02 7.049019618069758053e+01
4.281975617454030925e+01 2.222123893054432813e+02 7.041971319262955831e+01
4.281975617454030925e+01 2.214159294747215938e+02 7.035178241126379817e+01
4.281975617454030925e+01 2.206194677231260926e+02 7.028521036555446244e+01
4.281975617454030925e+01 2.198230085373066061e+02 7.026840748537779291e+01
4.281975617454030925e+01 2.190265483303963947e+02 7.024087249566264290e+01
4.281975617454030925e+01 2.182300881037901661e+02 7.021373346792552184e+01
4.281975617454030925e+01 2.174336294228010331e+02 7.019001820467411790e+01
4.281975617454030925e+01 2.166371679220403905e+02 7.017722647788343693e+01
4.281975617454030925e+01 2.158407080469227992e+02 7.019607541156841535e+01
4.281975617454030925e+01 2.150442465826166938e+02 7.017410987430315572e+01
4.281975617454030925e+01 2.142477868675572665e+02 7.010981929152103476e+01
4.281975617454030925e+01 2.134513277551193653e+02 7.010254949881704079e+01
4.281975617454030925e+01 2.126548669799660445e+02 7.005859171966829990e+01
4.281975617454030925e+01 2.118584075645404710e+02 7.002662080122331645e+01
4.281975617454030925e+01 2.110619465480432382e+02 7.001089738155707209e+01
4.281975617454030925e+01 2.102654866059822041e+02 7.003014513012965381e+01
4.281975617454030925e+01 2.094690270372180123e+02 7.002979299125155421e+01
4.281975617454030925e+01 2.086725677053744903e+02 7.000734254839204596e+01
4.281975617454030925e+01 2.078761049632269646e+02 7.004373254005685112e+01
4.281975617454030925e+01 2.070796458263822331e+02 7.012279598568352412e+01
4.281975617454030925e+01 2.062831840352928907e+02 7.009692397322783108e+01
4.281975617454030925e+01 2.054867242397704388e+02 7.014161280875430293e+01
4.281975617454030925e+01 2.046902645849982321e+02 7.030112878528973397e+01
4.281975617454030925e+01 2.038938054246536069e+02 7.041356727965722939e+01
4.281975617454030925e+01 2.030973450032660423e+02 7.051470815114487323e+01
4.281975617454030925e+01 2.023008842945295953e+02 7.060244420124428189e+01
4.281975617454030925e+01 2.015044253961902712e+02 7.064813140848991679e+01
4.281975617454030925e+01 2.007079642577932930e+02 7.070619766554784746e+01
4.281975617454030925e+01 1.999115030971306908e+02 7.073292217307891860e+01
4.281975617454030925e+01 1.991150446640320411e+02 7.076669148907103590e+01
4.281975617454030925e+01 1.983185835812901701e+02 7.076344800723450135e+01
4.281975617454030925e+01 1.975221249471728697e+02 7.077297533747645275e+01
4.281975617454030925e+01 1.967256642173620378e+02 7.079175543349828104e+01
4.281975617454030925e+01 1.959292046847782274e+02 7.081330316771936850e+01
4.281975617454030925e+01 1.951327432308914354e+02 7.084669409712898869e+01
4.281975617454030925e+01 1.943362829297417704e+02 7.087529070070161197e+01
4.281975617454030925e+01 1.935398228523296780e+02 7.088168719865848288e+01
4.281975617454030925e+01 1.927433622862583888e+02 7.087718174868928145e+01
4.281975617454030925e+01 1.919469016620186324e+02 7.087001319214925843e+01
4.281975617454030925e+01 1.911504424375486337e+02 7.084164006731168683e+01
4.281975617454030925e+01 1.903539821625924731e+02 7.081696636166560666e+01
4.281975617454030925e+01 1.895575221766312097e+02 7.083470301670416802e+01
4.281975617454030925e+01 1.887610622149522328e+02 7.078765699309457204e+01
4.281975617454030925e+01 1.879646007811788877e+02 7.083743890354645600e+01
4.281975617454030925e+01 1.871681413899775919e+02 7.083158283968003843e+01
4.281975617454030925e+01 1.863716812706155963e+02 7.087237209867686261e+01
4.281975617454030925e+01 1.855752213806676423e+02 7.088865961060974996e+01
4.281975617454030925e+01 1.847787611056028823e+02 7.092671387848452014e+01
4.281975617454030925e+01 1.839823010276212756e+02 7.092438606388071776e+01
4.281975617454030925e+01 1.831858406201924083e+02 7.087999500629291560e+01
4.281975617454030925e+01 1.823893805248208935e+02 7.082598447777337469e+01
4.281975617454030925e+01 1.815929203568983894e+02 7.076882501728641728e+01
4.281975617454030925e+01 1.807964601804114011e+02 7.073553563337668493e+01
4.366231289420382211e+01 2.692035398195886273e+02 7.031563971898708587e+01
4.366231289420382211e+01 2.684070796431016674e+02 7.035657189959528068e+01
4.366231289420382211e+01 2.676106194751790781e+02 7.039748594079566146e+01
4.366231289420382211e+01 2.668141593798076201e+02 7.043841748121815272e+01
4.366231289420382211e+01 2.660176989723786960e+02 7.047935141944481074e+01
4.366231289420382211e+01 2.652212388943971177e+02 7.052028642945606407e+01
4.366231289420382211e+01 2.644247786193323577e+02 7.055130524054339958e+01
4.366231289420382211e+01 2.636283187293843753e+02 7.051056702080785499e+01
4.366231289420382211e+01 2.628318586100223797e+02 7.048566038936445466e+01
4.366231289420382211e+01 2.620353992188210555e+02 7.045982361821302220e+01
4.366231289420382211e+01 2.612389377850477672e+02 7.048764720666423500e+01
4.366231289420382211e+01 2.604424778233687903e+02 7.052113219369863373e+01
4.366231289420382211e+01 2.596460178374074417e+02 7.054210640235748997e+01
4.366231289420382211e+01 2.588495575624512526e+02 7.056109318919305906e+01
4.366231289420382211e+01 2.580530983379813392e+02 7.054211302486032764e+01
4.366231289420382211e+01 2.572566377137416680e+02 7.054899423366242672e+01
4.366231289420382211e+01 2.564601771476702652e+02 7.055354853271865068e+01
4.366231289420382211e+01 2.556637170702582011e+02 7.053961318738271302e+01
4.366231289420382211e+01 2.548672567691085646e+02 7.053227188099987188e+01
4.366231289420382211e+01 2.540707953152218010e+02 7.053511011122077434e+01
4.366231289420382211e+01 2.532743357826379906e+02 7.055032823420964405e+01
4.366231289420382211e+01 2.524778750528269313e+02 7.051473375699384860e+01
4.366231289420382211e+01 2.516814164187097731e+02 7.051132723525006440e+01
4.366231289420382211e+01 2.508849553359679589e+02 7.048553419876134285e+01
4.366231289420382211e+01 2.500884969028692808e+02 7.047073253423792494e+01
4.366231289420382211e+01 2.492920357422066786e+02 7.045781392635677776e+01
4.366231289420382211e+01 2.484955746038096720e+02 7.042931049824159118e+01
4.366231289420382211e+01 2.476991157054704047e+02 7.041360075590182532e+01
4.366231289420382211e+01 2.469026549967339577e+02 7.038844995227884738e+01
4.366231289420382211e+01 2.461061945753463931e+02 7.035734685150760015e+01
4.366231289420382211e+01 2.453097354150016827e+02 7.033208352490976267e+01
4.366231289420382211e+01 2.445132757602295897e+02 7.029151640821737601e+01
4.366231289420382211e+01 2.437168159647070809e+02 7.027230176379219984e+01
4.366231289420382211e+01 2.429203541736176817e+02 7.026832240954701092e+01
4.366231289420382211e+01 2.421238950367728933e+02 7.027951068375421073e+01
4.366231289420382211e+01 2.413274322946253676e+02 7.031021141178547396e+01
4.366231289420382211e+01 2.405309729627819593e+02 7.033497604335644837e+01
4.366231289420382211e+01 2.397345133940177675e+02 7.039002777993084692e+01
4.366231289420382211e+01 2.389380534519567902e+02 7.041423640126077999e+01
4.366231289420382211e+01 2.381415924354594722e+02 7.045732038803055275e+01
4.366231289420382211e+01 2.373451330200340124e+02 7.047770652695805893e+01
4.366231289420382211e+01 2.365486722448804926e+02 7.053396253297404428e+01
4.366231289420382211e+01 2.357522131324427903e+02 7.057119137656150087e+01
4.366231289420382211e+01 2.349557534173832778e+02 7.060323796176504629e+01
4.366231289420382211e+01 2.341592919530772008e+02 7.064359166494330111e+01
4.366231289420382211e+01 2.333628320779596663e+02 7.068034690478845050e+01
4.366231289420382211e+01 2.325663705771988816e+02 7.072721006500006524e+01
4.366231289420382211e+01 2.317699118962098055e+02 7.077271972664425448e+01
4.366231289420382211e+01 2.309734516696036337e+02 7.078446197597139644e+01
4.366231289420382211e+01 2.301769914626933655e+02 7.079616235808578040e+01
4.366231289420382211e+01 2.293805322768739074e+02 7.079524353508480772e+01
4.366231289420382211e+01 2.285840705252784346e+02 7.079563900607155347e+01
4.366231289420382211e+01 2.277876106945566903e+02 7.076201744119180148e+01
4.366231289420382211e+01 2.269911515643165671e+02 7.074399514124860389e+01
4.366231289420382211e+01 2.261946874803456922e+02 7.072175179116277377e+01
4.366231289420382211e+01 2.253982293195803095e+02 7.067943676623292504e+01
4.366231289420382211e+01 2.246017706804196905e+02 7.061209445566481691e+01
4.366231289420382211e+01 2.238053125196542510e+02 7.055972242903175129e+01
4.366231289420382211e+01 2.230088484356832907e+02 7.046925978354164499e+01
4.366231289420382211e+01 2.222123893054432813e+02 7.042899688827537830e+01
4.366231289420382211e+01 2.214159294747215938e+02 7.035057688173924362e+01
4.366231289420382211e+01 2.206194677231260926e+02 7.030987711912916893e+01
4.366231289420382211e+01 2.198230085373066061e+02 7.026478897387561062e+01
4.366231289420382211e+01 2.190265483303963947e+02 7.023012448678969122e+01
4.366231289420382211e+01 2.182300881037901661e+02 7.019944487214780793e+01
4.366231289420382211e+01 2.174336294228010331e+02 7.019692650554878810e+01
4.366231289420382211e+01 2.166371679220403905e+02 7.018409579386423047e+01
4.366231289420382211e+01 2.158407080469227992e+02 7.017847849587133169e+01
4.366231289420382211e+01 2.150442465826166938e+02 7.014267030928812119e+01
4.366231289420382211e+01 2.142477868675572665e+02 7.012551718220532848e+01
4.366231289420382211e+01 2.134513277551193653e+02 7.010126059556449718e+01
4.366231289420382211e+01 2.126548669799660445e+02 7.003725897910283038e+01
4.366231289420382211e+01 2.118584075645404710e+02 7.001305305677612978e+01
4.366231289420382211e+01 2.110619465480432382e+02 7.004590195142696984e+01
4.366231289420382211e+01 2.102654866059822041e+02 7.006929790285238369e+01
4.366231289420382211e+01 2.094690270372180123e+02 7.007399915228404552e+01
4.366231289420382211e+01 2.086725677053744903e+02 7.004491306537187256e+01
4.366231289420382211e+01 2.078761049632269646e+02 7.001576572379235586e+01
4.366231289420382211e+01 2.070796458263822331e+02 7.009170860793807378e+01
4.366231289420382211e+01 2.062831840352928907e+02 7.010774168466787160e+01
4.366231289420382211e+01 2.054867242397704388e+02 7.011299017417150026e+01
4.366231289420382211e+01 2.046902645849982321e+02 7.027285135912859459e+01
4.366231289420382211e+01 2.038938054246536069e+02 7.037362660193650754e+01
4.366231289420382211e+01 2.030973450032660423e+02 7.047015842342455016e+01
4.366231289420382211e+01 2.023008842945295953e+02 7.055261739969870405e+01
4.366231289420382211e+01 2.015044253961902712e+02 7.059000323650229802e+01
4.366231289420382211e+01 2.007079642577932930e+02 7.064255002315161391e+01
4.366231289420382211e+01 1.999115030971306908e+02 7.071394340091165986e+01
4.366231289420382211e+01 1.991150446640320411e+02 7.072546650169084614e+01
4.366231289420382211e+01 1.983185835812901701e+02 7.073389177804932615e+01
4.366231289420382211e+01 1.975221249471728697e+02 7.073136689039012026e+01
4.366231289420382211e+01 1.967256642173620378e+02 7.076123448191600573e+01
4.366231289420382211e+01 1.959292046847782274e+02 7.078462298710132927e+01
4.366231289420382211e+01 1.951327432308914354e+02 7.080620992330318586e+01
4.366231289420382211e+01 1.943362829297417704e+02 7.086491542288518986e+01
4.366231289420382211e+01 1.935398228523296780e+02 7.087377721298446431e+01
4.366231289420382211e+01 1.927433622862583888e+02 7.088878844201212814e+01
4.366231289420382211e+01 1.919469016620186324e+02 7.084944152021950003e+01
4.366231289420382211e+01 1.911504424375486337e+02 7.084340589255396026e+01
4.366231289420382211e+01 1.903539821625924731e+02 7.086749320089330695e+01
4.366231289420382211e+01 1.895575221766312097e+02 7.079902600018709791e+01
4.366231289420382211e+01 1.887610622149522328e+02 7.080909141148555364e+01
4.366231289420382211e+01 1.879646007811788877e+02 7.082194424064675786e+01
4.366231289420382211e+01 1.871681413899775919e+02 7.083636763013504378e+01
4.366231289420382211e+01 1.863716812706155963e+02 7.085635400919966287e+01
4.366231289420382211e+01 1.855752213806676423e+02 7.089322463345234837e+01
4.366231289420382211e+01 1.847787611056028823e+02 7.091923061084264646e+01
4.366231289420382211e+01 1.839823010276212756e+02 7.090598060714000894e+01
4.366231289420382211e+01 1.831858406201924083e+02 7.088362557834221889e+01
4.366231289420382211e+01 1.823893805248208935e+02 7.085664574698301976e+01
4.366231289420382211e+01 1.815929203568983894e+02 7.080608253716695799e+01
4.366231289420382211e+01 1.807964601804114011e+02 7.075437808616185009e+01
4.450486793208048653e+01 2.692035398195886273e+02 7.021196779503600283e+01
4.450486793208048653e+01 2.684070796431016674e+02 7.025618919042773314e+01
4.450486793208048653e+01 2.676106194751790781e+02 7.030039244637634965e+01
4.450486793208048653e+01 2.668141593798076201e+02 7.034461320124734129e+01
4.450486793208048653e+01 2.660176989723786960e+02 7.038883635521125370e+01
4.450486793208048653e+01 2.652212388943971177e+02 7.047420710680609091e+01
4.450486793208048653e+01 2.644247786193323577e+02 7.050882024519336255e+01
4.450486793208048653e+01 2.636283187293843753e+02 7.052719276968804252e+01
4.450486793208048653e+01 2.628318586100223797e+02 7.053963397050398498e+01
4.450486793208048653e+01 2.620353992188210555e+02 7.054968033006878159e+01
4.450486793208048653e+01 2.612389377850477672e+02 7.056937751021649774e+01
4.450486793208048653e+01 2.604424778233687903e+02 7.056886170074443498e+01
4.450486793208048653e+01 2.596460178374074417e+02 7.059679044200566977e+01
4.450486793208048653e+01 2.588495575624512526e+02 7.060520038602027171e+01
4.450486793208048653e+01 2.580530983379813392e+02 7.061990721241113533e+01
4.450486793208048653e+01 2.572566377137416680e+02 7.062322714121114586e+01
4.450486793208048653e+01 2.564601771476702652e+02 7.063460796014368270e+01
4.450486793208048653e+01 2.556637170702582011e+02 7.062013471635094675e+01
4.450486793208048653e+01 2.548672567691085646e+02 7.059836134273336938e+01
4.450486793208048653e+01 2.540707953152218010e+02 7.061175351655884924e+01
4.450486793208048653e+01 2.532743357826379906e+02 7.060653213186282073e+01
4.450486793208048653e+01 2.524778750528269313e+02 7.057408137673149895e+01
4.450486793208048653e+01 2.516814164187097731e+02 7.057849238230500077e+01
4.450486793208048653e+01 2.508849553359679589e+02 7.057533930189174498e+01
4.450486793208048653e+01 2.500884969028692808e+02 7.054011275831400951e+01
4.450486793208048653e+01 2.492920357422066786e+02 7.050880085120229523e+01
4.450486793208048653e+01 2.484955746038096720e+02 7.047304034576097820e+01
4.450486793208048653e+01 2.476991157054704047e+02 7.046345879469805595e+01
4.450486793208048653e+01 2.469026549967339577e+02 7.043442040300385543e+01
4.450486793208048653e+01 2.461061945753463931e+02 7.040293431432417037e+01
4.450486793208048653e+01 2.453097354150016827e+02 7.037632107979897000e+01
4.450486793208048653e+01 2.445132757602295897e+02 7.032307986275350231e+01
4.450486793208048653e+01 2.437168159647070809e+02 7.031707740203518142e+01
4.450486793208048653e+01 2.429203541736176817e+02 7.030142276605459983e+01
4.450486793208048653e+01 2.421238950367728933e+02 7.029302524344421954e+01
4.450486793208048653e+01 2.413274322946253676e+02 7.028034185499637942e+01
4.450486793208048653e+01 2.405309729627819593e+02 7.033484669675760870e+01
4.450486793208048653e+01 2.397345133940177675e+02 7.037250785758527627e+01
4.450486793208048653e+01 2.389380534519567902e+02 7.042161749664398940e+01
4.450486793208048653e+01 2.381415924354594722e+02 7.045880034608192943e+01
4.450486793208048653e+01 2.373451330200340124e+02 7.047345867824873267e+01
4.450486793208048653e+01 2.365486722448804926e+02 7.051572658907957702e+01
4.450486793208048653e+01 2.357522131324427903e+02 7.056458220436383044e+01
4.450486793208048653e+01 2.349557534173832778e+02 7.061354841494841139e+01
4.450486793208048653e+01 2.341592919530772008e+02 7.062974107113439004e+01
4.450486793208048653e+01 2.333628320779596663e+02 7.067690213936128885e+01
4.450486793208048653e+01 2.325663705771988816e+02 7.072617394974594163e+01
4.450486793208048653e+01 2.317699118962098055e+02 7.074076944648624021e+01
4.450486793208048653e+01 2.309734516696036337e+02 7.079016165719372111e+01
4.450486793208048653e+01 2.301769914626933655e+02 7.079367112255408756e+01
4.450486793208048653e+01 2.293805322768739074e+02 7.080017307295230466e+01
4.450486793208048653e+01 2.285840705252784346e+02 7.077201109252087008e+01
4.450486793208048653e+01 2.277876106945566903e+02 7.077333156836834860e+01
4.450486793208048653e+01 2.269911515643165671e+02 7.076179748044984308e+01
4.450486793208048653e+01 2.261946874803456922e+02 7.072868971238307267e+01
4.450486793208048653e+01 2.253982293195803095e+02 7.065927082166081163e+01
4.450486793208048653e+01 2.246017706804196905e+02 7.060770028865147196e+01
4.450486793208048653e+01 2.238053125196542510e+02 7.055710695049447168e+01
4.450486793208048653e+01 2.230088484356832907e+02 7.049728912790567392e+01
4.450486793208048653e+01 2.222123893054432813e+02 7.045673466016910425e+01
4.450486793208048653e+01 2.214159294747215938e+02 7.034834991753626809e+01
4.450486793208048653e+01 2.206194677231260926e+02 7.030903635108489880e+01
4.450486793208048653e+01 2.198230085373066061e+02 7.026392447343130243e+01
4.450486793208048653e+01 2.190265483303963947e+02 7.025197799503183660e+01
4.450486793208048653e+01 2.182300881037901661e+02 7.021281363901067607e+01
4.450486793208048653e+01 2.174336294228010331e+02 7.023218303079448788e+01
4.450486793208048653e+01 2.166371679220403905e+02 7.018856627371440027e+01
4.450486793208048653e+01 2.158407080469227992e+02 7.015551365685945484e+01
4.450486793208048653e+01 2.150442465826166938e+02 7.014630180736133980e+01
4.450486793208048653e+01 2.142477868675572665e+02 7.012039420610801699e+01
4.450486793208048653e+01 2.134513277551193653e+02 7.009825356463977641e+01
4.450486793208048653e+01 2.126548669799660445e+02 7.005892260141683892e+01
4.450486793208048653e+01 2.118584075645404710e+02 7.000420925190246635e+01
4.450486793208048653e+01 2.110619465480432382e+02 7.005024979875173585e+01
4.450486793208048653e+01 2.102654866059822041e+02 7.006016176451811361e+01
4.450486793208048653e+01 2.094690270372180123e+02 7.007392413039752910e+01
4.450486793208048653e+01 2.086725677053744903e+02 7.005396904738017838e+01
4.450486793208048653e+01 2.078761049632269646e+02 7.001609839566458504e+01
4.450486793208048653e+01 2.070796458263822331e+02 7.007813580044756918e+01
4.450486793208048653e+01 2.062831840352928907e+02 7.011975267726978700e+01
4.450486793208048653e+01 2.054867242397704388e+02 7.009149676156664555e+01
4.450486793208048653e+01 2.046902645849982321e+02 7.022465887854991706e+01
4.450486793208048653e+01 2.038938054246536069e+02 7.032651347782217499e+01
4.450486793208048653e+01 2.030973450032660423e+02 7.042576716921848856e+01
4.450486793208048653e+01 2.023008842945295953e+02 7.050978405298906182e+01
4.450486793208048653e+01 2.015044253961902712e+02 7.053450549983568862e+01
4.450486793208048653e+01 2.007079642577932930e+02 7.062134677279749440e+01
4.450486793208048653e+01 1.999115030971306908e+02 7.063123336808342856e+01
4.450486793208048653e+01 1.991150446640320411e+02 7.070845667508808674e+01
4.450486793208048653e+01 1.983185835812901701e+02 7.069072638130057840e+01
4.450486793208048653e+01 1.975221249471728697e+02 7.070552245042836148e+01
4.450486793208048653e+01 1.967256642173620378e+02 7.072249030585896890e+01
4.450486793208048653e+01 1.959292046847782274e+02 7.074466363543575653e+01
4.450486793208048653e+01 1.951327432308914354e+02 7.075613301046757897e+01
4.450486793208048653e+01 1.943362829297417704e+02 7.086818205916262059e+01
4.450486793208048653e+01 1.935398228523296780e+02 7.083046325827478995e+01
4.450486793208048653e+01 1.927433622862583888e+02 7.086035147324287209e+01
4.450486793208048653e+01 1.919469016620186324e+02 7.088739711119137610e+01
4.450486793208048653e+01 1.911504424375486337e+02 7.084753557881322195e+01
4.450486793208048653e+01 1.903539821625924731e+02 7.082133033233037622e+01
4.450486793208048653e+01 1.895575221766312097e+02 7.081500605758640177e+01
4.450486793208048653e+01 1.887610622149522328e+02 7.081375374987084115e+01
4.450486793208048653e+01 1.879646007811788877e+02 7.081325643310924534e+01
4.450486793208048653e+01 1.871681413899775919e+02 7.082656265094482251e+01
4.450486793208048653e+01 1.863716812706155963e+02 7.084580895573611770e+01
4.450486793208048653e+01 1.855752213806676423e+02 7.087780712995305521e+01
4.450486793208048653e+01 1.847787611056028538e+02 7.089405959336028218e+01
4.450486793208048653e+01 1.839823010276212756e+02 7.090476963090071649e+01
4.450486793208048653e+01 1.831858406201924083e+02 7.091269690805194159e+01
4.450486793208048653e+01 1.823893805248208935e+02 7.087760871622998593e+01
4.450486793208048653e+01 1.815929203568983894e+02 7.083049875335376555e+01
4.450486793208048653e+01 1.807964601804114011e+02 7.077293461060992286e+01
4.534742465174399939e+01 2.692035398195886273e+02 7.014430474241953561e+01
4.534742465174399939e+01 2.684070796431016674e+02 7.025846595005600648e+01
4.534742465174399939e+01 2.676106194751790781e+02 7.038935827025233039e+01
4.534742465174399939e+01 2.668141593798076201e+02 7.054433034360164356e+01
4.534742465174399939e+01 2.660176989723786960e+02 7.055623511187843633e+01
4.534742465174399939e+01 2.652212388943971177e+02 7.053014029085835546e+01
4.534742465174399939e+01 2.644247786193323577e+02 7.054925702507540564e+01
4.534742465174399939e+01 2.636283187293843753e+02 7.054342400128433610e+01
4.534742465174399939e+01 2.628318586100223797e+02 7.056693383700741151e+01
4.534742465174399939e+01 2.620353992188210555e+02 7.060430991118903421e+01
4.534742465174399939e+01 2.612389377850477672e+02 7.061394536259763299e+01
4.534742465174399939e+01 2.604424778233687903e+02 7.063594687458800081e+01
4.534742465174399939e+01 2.596460178374074417e+02 7.065525445265922144e+01
4.534742465174399939e+01 2.588495575624512526e+02 7.067210266997670942e+01
4.534742465174399939e+01 2.580530983379813392e+02 7.066653470945539084e+01
4.534742465174399939e+01 2.572566377137416680e+02 7.068924306820326819e+01
4.534742465174399939e+01 2.564601771476702652e+02 7.069796242325412550e+01
4.534742465174399939e+01 2.556637170702582011e+02 7.067284012503961321e+01
4.534742465174399939e+01 2.548672567691085646e+02 7.068130643735088370e+01
4.534742465174399939e+01 2.540707953152218010e+02 7.067143912904928982e+01
4.534742465174399939e+01 2.532743357826379906e+02 7.067162237267461933e+01
4.534742465174399939e+01 2.524778750528269313e+02 7.066450440255749754e+01
4.534742465174399939e+01 2.516814164187097731e+02 7.063472439618305998e+01
4.534742465174399939e+01 2.508849553359679589e+02 7.062605776439420424e+01
4.534742465174399939e+01 2.500884969028692808e+02 7.059882808480233507e+01
4.534742465174399939e+01 2.492920357422066786e+02 7.057551373525660665e+01
4.534742465174399939e+01 2.484955746038096720e+02 7.054934927596326588e+01
4.534742465174399939e+01 2.476991157054704047e+02 7.052924083760984786e+01
4.534742465174399939e+01 2.469026549967339577e+02 7.049001545447595163e+01
4.534742465174399939e+01 2.461061945753463931e+02 7.042523814806389737e+01
4.534742465174399939e+01 2.453097354150016827e+02 7.038894310900178652e+01
4.534742465174399939e+01 2.445132757602295897e+02 7.036725473652995788e+01
4.534742465174399939e+01 2.437168159647070809e+02 7.033634048614788981e+01
4.534742465174399939e+01 2.429203541736176817e+02 7.031316778486490193e+01
4.534742465174399939e+01 2.421238950367728933e+02 7.031316274228151997e+01
4.534742465174399939e+01 2.413274322946253676e+02 7.032375581442641987e+01
4.534742465174399939e+01 2.405309729627819593e+02 7.033302988805559153e+01
4.534742465174399939e+01 2.397345133940177675e+02 7.036474683319477208e+01
4.534742465174399939e+01 2.389380534519567902e+02 7.040334467754718162e+01
4.534742465174399939e+01 2.381415924354594722e+02 7.042315018127845860e+01
4.534742465174399939e+01 2.373451330200340124e+02 7.046836538384906135e+01
4.534742465174399939e+01 2.365486722448804926e+02 7.049270934793747756e+01
4.534742465174399939e+01 2.357522131324427903e+02 7.056771035666503167e+01
4.534742465174399939e+01 2.349557534173832778e+02 7.061111005819094544e+01
4.534742465174399939e+01 2.341592919530772008e+02 7.062940452127241997e+01
4.534742465174399939e+01 2.333628320779596663e+02 7.066202508478579603e+01
4.534742465174399939e+01 2.325663705771988816e+02 7.070864207932208956e+01
4.534742465174399939e+01 2.317699118962098055e+02 7.074678681153619664e+01
4.534742465174399939e+01 2.309734516696036337e+02 7.081312980737754970e+01
4.534742465174399939e+01 2.301769914626933655e+02 7.082522346265841406e+01
4.534742465174399939e+01 2.293805322768739074e+02 7.080985751003498763e+01
4.534742465174399939e+01 2.285840705252784346e+02 7.079783134270608969e+01
4.534742465174399939e+01 2.277876106945566903e+02 7.077709018223976045e+01
4.534742465174399939e+01 2.269911515643165671e+02 7.075671805233503164e+01
4.534742465174399939e+01 2.261946874803456922e+02 7.073085633568030062e+01
4.534742465174399939e+01 2.253982293195803095e+02 7.066932587196868099e+01
4.534742465174399939e+01 2.246017706804196905e+02 7.060393392296396087e+01
4.534742465174399939e+01 2.238053125196542510e+02 7.056595618583145324e+01
4.534742465174399939e+01 2.230088484356832907e+02 7.048496465819937384e+01
4.534742465174399939e+01 2.222123893054432813e+02 7.043045676424372914e+01
4.534742465174399939e+01 2.214159294747215938e+02 7.036783651858218036e+01
4.534742465174399939e+01 2.206194677231260926e+02 7.032206297872846790e+01
4.534742465174399939e+01 2.198230085373066061e+02 7.027345648203493056e+01
4.534742465174399939e+01 2.190265483303963947e+02 7.021470676187101390e+01
4.534742465174399939e+01 2.182300881037901661e+02 7.021190626763171849e+01
4.534742465174399939e+01 2.174336294228010331e+02 7.020036113947418244e+01
4.534742465174399939e+01 2.166371679220403905e+02 7.018911293393091455e+01
4.534742465174399939e+01 2.158407080469227992e+02 7.016465097961878428e+01
4.534742465174399939e+01 2.150442465826166938e+02 7.015644009503790812e+01
4.534742465174399939e+01 2.142477868675572665e+02 7.012350487955575318e+01
4.534742465174399939e+01 2.134513277551193653e+02 7.007798210114100357e+01
4.534742465174399939e+01 2.126548669799660445e+02 7.002309199248605864e+01
4.534742465174399939e+01 2.118584075645404710e+02 7.000836520892960380e+01
4.534742465174399939e+01 2.110619465480432382e+02 7.004462441937016592e+01
4.534742465174399939e+01 2.102654866059822041e+02 7.007597971012614835e+01
4.534742465174399939e+01 2.094690270372180123e+02 7.008243633717904686e+01
4.534742465174399939e+01 2.086725677053744903e+02 7.008031919843710966e+01
4.534742465174399939e+01 2.078761049632269646e+02 7.003862892483221003e+01
4.534742465174399939e+01 2.070796458263822331e+02 7.007326234608359528e+01
4.534742465174399939e+01 2.062831840352928907e+02 7.007780463743767996e+01
4.534742465174399939e+01 2.054867242397704388e+02 7.008300489647797349e+01
4.534742465174399939e+01 2.046902645849982321e+02 7.019493632788697823e+01
4.534742465174399939e+01 2.038938054246536069e+02 7.029651228676721075e+01
4.534742465174399939e+01 2.030973450032660423e+02 7.037544583415967736e+01
4.534742465174399939e+01 2.023008842945295953e+02 7.046338044330190087e+01
4.534742465174399939e+01 2.015044253961902712e+02 7.050569430816761951e+01
4.534742465174399939e+01 2.007079642577932930e+02 7.056718543050573089e+01
4.534742465174399939e+01 1.999115030971306908e+02 7.060641514702012955e+01
4.534742465174399939e+01 1.991150446640320411e+02 7.063318340963985520e+01
4.534742465174399939e+01 1.983185835812901701e+02 7.064734180760194704e+01
4.534742465174399939e+01 1.975221249471728697e+02 7.067499603792396101e+01
4.534742465174399939e+01 1.967256642173620378e+02 7.069746654426302257e+01
4.534742465174399939e+01 1.959292046847782274e+02 7.071135346607786687e+01
4.534742465174399939e+01 1.951327432308914354e+02 7.074870143960407631e+01
4.534742465174399939e+01 1.943362829297417704e+02 7.080840992075900431e+01
4.534742465174399939e+01 1.935398228523296780e+02 7.085202633734445499e+01
4.534742465174399939e+01 1.927433622862583888e+02 7.087528759096733211e+01
4.534742465174399939e+01 1.919469016620186324e+02 7.086453182936719486e+01
4.534742465174399939e+01 1.911504424375486337e+02 7.085107349378444042e+01
4.534742465174399939e+01 1.903539821625924731e+02 7.084524845189872622e+01
4.534742465174399939e+01 1.895575221766312097e+02 7.083151046611948232e+01
4.534742465174399939e+01 1.887610622149522328e+02 7.080803459963789237e+01
4.534742465174399939e+01 1.879646007811788877e+02 7.082198176380046561e+01
4.534742465174399939e+01 1.871681413899775919e+02 7.083518421926282826e+01
4.534742465174399939e+01 1.863716812706155963e+02 7.084612731360925864e+01
4.534742465174399939e+01 1.855752213806676423e+02 7.089710609122386131e+01
4.534742465174399939e+01 1.847787611056028538e+02 7.091340284309791286e+01
4.534742465174399939e+01 1.839823010276212756e+02 7.092739427776308503e+01
4.534742465174399939e+01 1.831858406201924083e+02 7.090920175701393191e+01
4.534742465174399939e+01 1.823893805248208935e+02 7.088799336068728962e+01
4.534742465174399939e+01 1.815929203568983894e+02 7.088502625073590480e+01
4.534742465174399939e+01 1.807964601804114011e+02 7.082122469586846591e+01
4.030017541037000228e+01 1.792112098022312523e+02 7.040013657081703968e+01
4.032756162767815766e+01 1.760516630370125881e+02 7.022505013129347162e+01
2.596105374037805547e+01 1.775064271523151831e+02 7.036176401100959765e+01
4.032813679878596247e+01 1.744901556076461873e+02 7.022364489550005828e+01
2.597838119044720173e+01 1.750835865515105070e+02 7.005758999467445847e+01
4.023156523342920821e+01 1.705903260193199458e+02 7.029760229705794927e+01
2.596606378344862520e+01 1.718542312911843908e+02 7.004863952162600071e+01
4.021393001636379694e+01 1.689933414678583858e+02 7.029075789901867211e+01
2.595828215562468699e+01 1.694382656572030896e+02 7.012197334815590466e+01
4.025909608440777276e+01 1.649977662914589587e+02 7.032610419327590989e+01
2.596111596649205211e+01 1.662050484243703465e+02 7.018161121601548302e+01
4.028155466620172120e+01 1.618497569446475666e+02 7.045152414575608191e+01
2.585585965376492723e+01 1.630724107796864075e+02 7.006093697438478785e+01
4.022031576108983586e+01 1.586950852078518608e+02 7.050587536429543434e+01
2.591408143324118285e+01 1.591251787134341669e+02 7.008491623940824411e+01
4.021596329668346925e+01 1.562854381394326140e+02 7.050486867502047517e+01
2.593393492718142923e+01 1.575253662593680701e+02 7.005851477265633775e+01
4.021783176189036624e+01 1.546758538104768661e+02 7.051140823996701101e+01
2.594497922152327618e+01 1.551153972347116223e+02 7.012542633246670221e+01
4.024359505487389299e+01 1.506660255631956886e+02 7.020300953516846221e+01
2.594715545372647725e+01 1.518966288587542692e+02 7.017872677422627703e+01
4.026451480168647379e+01 1.490780761816301663e+02 7.005893451429028573e+01
2.592011736629931562e+01 1.486979080636857873e+02 7.016512033590379360e+01
4.021873488143683062e+01 1.443542673171836839e+02 7.003067103728716347e+01
2.586405163758389847e+01 1.455683751538211936e+02 7.010801724658210787e+01
4.019032109235421046e+01 1.419647249392619415e+02 7.013751349407220914e+01
2.591457419679257868e+01 1.431888908283403623e+02 7.004016915160576673e+01
4.020380902301074855e+01 1.387553827750176367e+02 7.013031899835618788e+01
2.595124051402131116e+01 1.391776079554293801e+02 7.003815781496041382e+01
4.024916008760989428e+01 1.363642140430651182e+02 7.000995258633452067e+01
2.594896169281938114e+01 1.375696584241089226e+02 7.001404119877531684e+01
4.026342668558491056e+01 1.339950553858255091e+02 7.010543510463793382e+01
2.593028040432395542e+01 1.351655107792685158e+02 7.002604711903637735e+01
4.020487695766998826e+01 1.300454227641706098e+02 7.004613277699706941e+01
2.586165004594079520e+01 1.304473658326184307e+02 7.015431030796679579e+01
4.019085590057722612e+01 1.284394079616227486e+02 7.004969292496059552e+01
2.585544929776989420e+01 1.288655215485445638e+02 7.016214604328797577e+01
4.016543905568788375e+01 1.244041769197871616e+02 7.023666819885227142e+01
2.583520731106383650e+01 1.256276718858368469e+02 7.020829473980978719e+01
4.018863762370244075e+01 1.227751652770290747e+02 7.036200949075657718e+01
2.570944328930602296e+01 1.233334559428407999e+02 7.040203173371548928e+01
2.745398939465200527e+01 1.200264988596420750e+02 7.002874472662682592e+01
4.029711624006273496e+01 1.187993176263943553e+02 7.080097644927269585e+01
2.597205767183516656e+01 1.198701456945086790e+02 7.005637541986880024e+01
4.027348713461078944e+01 1.164527303472202817e+02 7.108737712075632942e+01
2.582369043461295988e+01 1.168862387054627590e+02 7.021962113358409852e+01
4.020352143745685680e+01 1.141231041935595556e+02 7.129793172898712328e+01
2.580178516069750572e+01 1.145789298058747221e+02 7.006124489591968540e+01
4.018824744914977032e+01 1.101104767469396819e+02 7.160031741387643933e+01
2.590948342795250525e+01 1.113672209997525471e+02 7.024792890947441037e+01
4.019116366757350534e+01 1.085026548127642343e+02 7.170235898433787725e+01
2.587597887002981167e+01 1.089817151128536636e+02 7.032603275582073366e+01
4.025026838515385919e+01 1.044996082671149651e+02 7.165570403679703304e+01
2.584112047368087772e+01 1.058225016206068432e+02 7.036233171060399627e+01
4.026433148691820207e+01 1.029164172606131444e+02 7.148133885754600669e+01
2.589061714290199134e+01 1.026428546849725194e+02 7.034361261713706881e+01
4.018543550151163402e+01 9.818186985081696605e+01 7.094603038660761740e+01
2.583003413466740028e+01 9.946799608483398458e+01 7.008610397814874204e+01
4.015562582933114300e+01 9.576817144545452720e+01 7.076630528496139050e+01
2.580160016414237489e+01 9.714921033003584228e+01 7.008003130788523549e+01
4.014306288145025547e+01 9.415186330065992593e+01 7.075138273371447895e+01
2.583473472895480683e+01 9.479608252579997441e+01 7.008642589782704135e+01
2.583879960780727458e+01 9.161460847887266823e+01 7.004229196137532654e+01
4.017424657349938855e+01 9.170351154050152331e+01 7.078589536364262358e+01
3.926305949545270835e+01 9.177712831147144357e+01 7.066686792883399448e+01
3.838704026253812884e+01 9.182212746065427211e+01 7.060275471481435261e+01
3.753079043422053473e+01 9.184852994603279797e+01 7.059120834856651072e+01
3.668322535327335032e+01 9.186297497686797442e+01 7.056290477555785401e+01
3.583888257595929616e+01 9.186881877829347331e+01 7.055339451731929046e+01
3.499665548652131264e+01 9.186758524206983623e+01 7.053501200150822115e+01
3.415719830004983493e+01 9.185987164060856003e+01 7.047715520876363371e+01
3.332022679456468950e+01 9.184554585059964893e+01 7.046665243731916917e+01
3.248510189105721935e+01 9.182496409189836584e+01 7.046083289447079778e+01
3.165264598330434254e+01 9.179937703236224422e+01 7.042364357924725482e+01
3.082212076687236646e+01 9.177109942803240017e+01 7.035849268635024600e+01
2.999255921431399941e+01 9.174193584823891001e+01 7.035502877313632553e+01
2.916353078819183509e+01 9.171322663554686017e+01 7.031582242057726262e+01
2.833479162941039320e+01 9.168558890416515794e+01 7.026857218105845959e+01
2.750582542940222552e+01 9.165933411356954252e+01 7.024191372548330037e+01
2.667499244597398445e+01 9.163468984530152284e+01 7.016271078766078517e+01
2.583471454751244067e+01 9.241533058957139701e+01 7.004129420003624773e+01
2.668909591062309872e+01 9.082005358664039818e+01 7.020535908422732518e+01
2.752982452796444690e+01 9.083305334774730966e+01 7.025404869451284640e+01
2.836932207732069244e+01 9.084711340595553963e+01 7.032942110697206317e+01
2.920855222256540884e+01 9.086174568185936096e+01 7.034502207825624964e+01
3.004784459392415386e+01 9.087646825636616654e+01 7.037715452271703498e+01
3.088723955428163492e+01 9.089082644583436377e+01 7.042299341133445978e+01
3.172688173730823991e+01 9.090427238345384353e+01 7.044711667295763391e+01
3.256715795398292812e+01 9.091612109126300822e+01 7.044811721290335527e+01
3.340831879054857723e+01 9.092566579753002998e+01 7.048963223674803658e+01
3.425032052054665854e+01 9.093239498915927754e+01 7.053099875452892320e+01
3.509339018520397246e+01 9.093598844722230012e+01 7.056458219345643101e+01
3.593752778452049057e+01 9.093631359877724663e+01 7.057668407843635805e+01
3.678254832194106427e+01 9.093314583727074307e+01 7.058879774090974024e+01
3.762908583111382654e+01 9.092599930069224001e+01 7.059133604324671296e+01
3.847971176415518357e+01 9.091391528482728290e+01 7.062643883610593321e+01
3.933986165621247721e+01 9.089401097451069234e+01 7.069288049006223673e+01
4.021916541887422625e+01 9.085949730705550564e+01 7.086459081015840411e+01
4.015425012767563828e+01 9.252699975924991804e+01 7.075659989831706298e+01
3.922126204649917014e+01 9.263048517332380527e+01 7.061980730359920244e+01
3.832725778485124124e+01 9.270101770337427638e+01 7.058510083841184723e+01
3.746088696318063427e+01 9.274370490659046595e+01 7.055932442520247605e+01
3.660810666116535117e+01 9.276678140994303590e+01 7.053739003496804116e+01
3.576142451832222946e+01 9.277629204141101127e+01 7.052165011794255634e+01
3.491847762410603906e+01 9.277388346790719709e+01 7.048574647536599969e+01
3.408125889595176261e+01 9.275840397424175876e+01 7.047344202921186707e+01
3.324755173877138503e+01 9.272959519296527731e+01 7.043906328648654380e+01
3.241657412167278807e+01 9.269105202776719921e+01 7.040398452585867517e+01
3.159111781085165305e+01 9.264816082690850862e+01 7.039290504125318648e+01
3.077046804689045700e+01 9.260520645904716730e+01 7.034778235566483318e+01
2.995215596667146585e+01 9.256479321288543360e+01 7.034543967448990998e+01
2.913392797579570015e+01 9.252817531569199616e+01 7.030296326874162105e+01
2.831438482759160991e+01 9.249548678197599827e+01 7.027393616940440779e+01
2.749250231385840948e+01 9.246599169840563093e+01 7.024904153076278135e+01
2.666704768482414067e+01 9.243842072963325052e+01 7.016604347186847690e+01
2.583313366785940346e+01 9.321197926712103765e+01 7.006217549819393753e+01
4.014774329429533140e+01 9.333990826500118487e+01 7.075149180744892874e+01
3.920151282334455800e+01 9.346690537370220397e+01 7.062257701170659629e+01
3.829338491560510249e+01 9.356109181348540460e+01 7.056840015464581484e+01
3.741533240237085778e+01 9.362230990542717279e+01 7.055198845764419957e+01
3.655491510620203144e+01 9.365815312550718374e+01 7.052432190863777350e+01
3.570100632520040307e+01 9.367529715920903755e+01 7.048863518546284013e+01
3.484960172484061047e+01 9.367446125222903675e+01 7.048203393989888355e+01
3.400706518661946376e+01 9.364948052233187070e+01 7.045604847709552132e+01
3.316990868457918396e+01 9.359438488565663761e+01 7.041502419567046900e+01
3.233979382414227643e+01 9.352892548408159712e+01 7.039998221865658934e+01
3.152333002768782322e+01 9.346702294521981003e+01 7.037402428636056584e+01
3.071649446103494085e+01 9.341214714959740206e+01 7.035247784870080068e+01
2.991331509902639141e+01 9.336435109001273247e+01 7.033276736221944248e+01
2.910884076113188002e+01 9.332374846982855843e+01 7.030964095574677231e+01
2.829985082550505737e+01 9.328992270273404586e+01 7.025932743740747810e+01
2.748459791559333709e+01 9.326128590320688261e+01 7.022015558830315740e+01
2.666234540874987502e+01 9.323504229070694294e+01 7.016273531136960173e+01
2.583210777787179779e+01 9.400551662556077304e+01 7.008389358322961016e+01
4.014792829085046577e+01 9.496225431236136671e+01 7.077809962706504621e+01
3.919580483872505283e+01 9.512666419314518862e+01 7.065136298344361876e+01
3.827761816374658821e+01 9.525645239540774867e+01 7.057698047948512965e+01
3.738445479553113415e+01 9.534832997962099910e+01 7.055444255251728691e+01
3.651211026691639461e+01 9.540395565415690271e+01 7.052975089334796621e+01
3.564680737990498471e+01 9.543558933433644142e+01 7.052017529790481376e+01
3.476510202560016438e+01 9.546301570271852199e+01 7.049046888543716705e+01
3.380809298263217499e+01 9.551886640138687312e+01 7.045985479916873828e+01
3.291000366068941219e+01 9.522020333599490982e+01 7.041287197195384806e+01
3.212084535577356803e+01 9.510704104256646474e+01 7.040286583970606671e+01
3.135266734199753103e+01 9.503692291725199937e+01 7.037592760022305072e+01
3.059021749428332271e+01 9.498033658893027109e+01 7.034830018476884561e+01
2.982752042389998337e+01 9.493025396963247431e+01 7.030935646121372429e+01
2.905831652013630162e+01 9.488804701894015636e+01 7.029457330063985410e+01
2.827698020592917061e+01 9.485572267545535396e+01 7.027159279805596270e+01
2.747796662998499784e+01 9.483232783786947095e+01 7.025633291099421740e+01
2.665951327966936901e+01 9.481300928485823931e+01 7.018327288526518259e+01
2.582845325501436307e+01 9.558348979650510557e+01 7.007923553527859895e+01
2.665875311200643694e+01 9.402633358152296239e+01 7.015639940956896226e+01
2.747784385954386366e+01 9.404916877831469435e+01 7.023608513197092407e+01
2.828541773063041376e+01 9.407575015382553829e+01 7.027270346271723156e+01
2.908184471837635243e+01 9.410917183953107212e+01 7.029070379285820991e+01
2.987016044807285553e+01 9.415071890424312073e+01 7.030779130190325077e+01
3.065490574425515291e+01 9.420023735526204689e+01 7.036158833940635304e+01
3.144252521418954416e+01 9.425907701705538955e+01 7.036734125611525315e+01
3.224262690623532279e+01 9.433377690460403642e+01 7.038427954761419869e+01
3.307048312691266290e+01 9.443497568372413298e+01 7.040996962350925514e+01
3.392562465768628499e+01 9.454811379828535678e+01 7.045530366384849685e+01
3.479224102023916032e+01 9.457318269600418148e+01 7.047188351225355518e+01
3.566290208020217278e+01 9.456321889532249259e+01 7.051812795518094390e+01
3.652705630678484283e+01 9.453501318179053214e+01 7.051490076953353991e+01
3.739607594276768054e+01 9.448377915840494268e+01 7.055370327700205735e+01
3.828416704179856822e+01 9.440146807712750388e+01 7.056401273262747509e+01
3.920075265568158329e+01 9.428568815943481241e+01 7.064103763708936867e+01
3.920990830337416355e+01 9.593903470091328245e+01 7.066033006195647204e+01
3.829291233349607637e+01 9.607819762026392141e+01 7.061787958321048109e+01
3.739979100995224570e+01 9.617942942119263705e+01 7.056680904626051642e+01
3.653040306264600190e+01 9.624378537350176543e+01 7.055475119997817046e+01
3.568098969793425113e+01 9.628509146906796445e+01 7.054106997208538132e+01
3.485204367936844960e+01 9.633111411692522097e+01 7.052552522071715657e+01
3.407871435242515901e+01 9.642884651587603173e+01 7.048104026800075417e+01
3.337707287238544041e+01 9.658794985449459602e+01 7.047363939280461409e+01
3.271014683681116253e+01 9.590379027358109454e+01 7.041223536500871205e+01
3.200579599813207210e+01 9.584723487251598328e+01 7.040899770860579565e+01
3.052004661913189310e+01 9.576232797649672079e+01 7.033453657873354814e+01
2.977096193163309223e+01 9.571777049677039884e+01 7.032094259310957796e+01
2.901616925951482884e+01 9.567578729163095375e+01 7.030342215584022370e+01
2.824938881062351470e+01 9.564050346941384362e+01 7.027305273428373766e+01
2.746078381358625009e+01 9.561429391493321361e+01 7.022565218148145050e+01
2.664752382110942364e+01 9.559579191602918513e+01 7.018916930745643867e+01
2.581434979036524879e+01 9.636864951657166500e+01 7.008862966691907559e+01
4.017352845050808696e+01 9.737997927385784180e+01 7.091050638183344290e+01
3.923984074599579230e+01 9.757397519626753990e+01 7.075982977674402719e+01
3.833113766714858173e+01 9.773179161013004546e+01 7.067971027584547983e+01
3.744263621212265747e+01 9.784925542562912426e+01 7.067023389988816007e+01
3.658406719971835486e+01 9.792713063537807727e+01 7.066605285182811258e+01
3.576220486742752058e+01 9.797515432893960963e+01 7.063345837998463139e+01
3.497366209650429170e+01 9.801046675712592560e+01 7.061642245754677560e+01
3.421018467701561860e+01 9.804675617316166836e+01 7.059882254646623778e+01
3.345290968748474825e+01 9.808700820138066945e+01 7.056637672370328573e+01
3.267056598294555414e+01 9.735509406970125212e+01 7.047591266229153462e+01
3.191813453958558711e+01 9.737588745590495876e+01 7.042838044356989258e+01
3.115884645117741769e+01 9.738063594037021176e+01 7.042000894800645483e+01
3.039311207371607182e+01 9.737267281832305343e+01 7.038389798198522840e+01
2.887658935866176080e+01 9.730338153227975795e+01 7.032533011094641040e+01
2.813764584595841001e+01 9.723884920108976360e+01 7.031689623096337982e+01
2.738784135368145201e+01 9.717390432958572433e+01 7.026247122476576124e+01
2.659597369012627865e+01 9.714623667953708264e+01 7.018350637923248314e+01
2.578199389287129151e+01 9.792674745103265366e+01 7.007031492800489048e+01
2.662455061253480793e+01 9.637501426043871788e+01 7.017480563491852763e+01
2.742645854367348335e+01 9.639666110557421064e+01 7.024993040974698033e+01
2.819950196684973420e+01 9.643468275630664266e+01 7.029433706882554134e+01
2.895203599920843374e+01 9.648123824197040221e+01 7.031666970393024485e+01
2.970112068670719552e+01 9.652571896877789470e+01 7.035489878718482260e+01
3.120046058536271971e+01 9.658914695953320972e+01 7.039860596050181130e+01
3.194045016949607785e+01 9.661024162342029342e+01 7.039286761382498980e+01
3.266159533180814378e+01 9.662485983767987818e+01 7.044211183130647669e+01
3.342420831284822214e+01 9.731918783243335724e+01 7.050663824320855610e+01
3.416877740261470819e+01 9.725193121724707623e+01 7.055000313725702199e+01
3.493044690122358276e+01 9.718870447270199975e+01 7.056261930937591842e+01
3.572952102149489662e+01 9.713797604278413189e+01 7.060248541826280189e+01
3.656173138836550152e+01 9.708414683306081372e+01 7.060235893779105254e+01
3.742424250918113415e+01 9.700609408059474958e+01 7.063425451643001907e+01
3.831510519296543293e+01 9.689118237112936072e+01 7.064286106841677793e+01
3.922904199253621016e+01 9.674030517250008643e+01 7.069928644843872689e+01
4.016888840054782150e+01 9.656149667252444146e+01 7.083951126639237827e+01
3.925825631216653733e+01 9.837784893474992032e+01 7.079121930056527390e+01
3.835236518095747016e+01 9.854189445934306946e+01 7.073822178342345524e+01
3.746680012579763996e+01 9.866688992463167551e+01 7.072162311467997142e+01
3.661151564314051399e+01 9.875152596087248469e+01 7.070648394663595582e+01
3.579304042959562082e+01 9.880221393449021150e+01 7.067040653561804220e+01
3.500560595621635684e+01 9.883365883724887624e+01 7.067032705510752066e+01
3.423796275066330708e+01 9.885896302587661921e+01 7.061955772072093396e+01
3.347331648930352799e+01 9.888688767672391577e+01 7.058396324890156848e+01
3.268774879934430544e+01 9.812576699136607772e+01 7.051650945505093659e+01
