3.178914821419459713e+01 3.103421024393476273e+02 7.114759601927684862e-01
3.099068794612899680e+01 3.102926667971046868e+02 7.253220789649326150e-01
3.017502636200910615e+01 3.104230121970689424e+02 7.408483232106214400e-01
2.939594700577467989e+01 3.104898863937461329e+02 7.695334037222678614e-01
2.858761464881206038e+01 3.105585509510848965e+02 7.723171086842555155e-01
2.773360159702480487e+01 3.106489572474032457e+02 8.062662026535515336e-01
2.684144561914141036e+01 3.107636476537536510e+02 8.118969968140206106e-01
2.592642070346902372e+01 3.109002923775884142e+02 7.984966863047059382e-01
2.685823994277438942e+01 3.091368373740079960e+02 7.407769413856813978e-01
2.774111582073721038e+01 3.089846546558720775e+02 7.260478166149537671e-01
2.857266860894361571e+01 3.088462985611034810e+02 7.103053366852880579e-01
2.935685891546047799e+01 3.087218601898431416e+02 7.104007100561502419e-01
3.076369212761171568e+01 3.088938730102240697e+02 7.035302542241740342e-01
3.125268847645243397e+01 3.090516110561557639e+02 7.127611908245492511e-01
3.244262668199706923e+01 3.090297941287309413e+02 6.804345687988501146e-01
3.300907940668800222e+01 3.094560293510641031e+02 6.645082540038248498e-01
3.436253606732078936e+01 3.090224821393335901e+02 6.156257358342396291e-01
3.503744722692965041e+01 3.095470448503430703e+02 6.037015182668308277e-01
3.580219607728820108e+01 3.094737076875238131e+02 5.651087557485500179e-01
3.662574187823076244e+01 3.094008413829079132e+02 5.373067010063996563e-01
3.748408553119515574e+01 3.093075666799092573e+02 5.033042927646262932e-01
3.837035020969077692e+01 3.091851976414608885e+02 5.434261528024149079e-01
3.927697964533355446e+01 3.090331576612376239e+02 5.627460139449840248e-01
2.593013577065359598e+01 3.077112964933934336e+02 6.596807053518815023e-01
2.682974374613536384e+01 3.075250330983435560e+02 6.489198431156902869e-01
2.767149993525117679e+01 3.073326245729288644e+02 6.356282184782086064e-01
2.846291687992658126e+01 3.071454017174856972e+02 6.303952707936933963e-01
3.047824917017831581e+01 3.075216942372715039e+02 6.500951321902123103e-01
3.090278094670024700e+01 3.078987093323851809e+02 6.794560630845477567e-01
3.158664257600415226e+01 3.079300510450948423e+02 6.804147286262752781e-01
3.215946086397874382e+01 3.081056125091571971e+02 6.596708440354296377e-01
3.297793607752363698e+01 3.076638209695168484e+02 6.236267233687068368e-01
3.437957593183603677e+01 3.076655784541312642e+02 5.967405946302584141e-01
3.503424510473888631e+01 3.077980493294646180e+02 5.630137711521396859e-01
3.575471082515748122e+01 3.077525975348315797e+02 5.634801301428529197e-01
3.656507646243980503e+01 3.077049689126081375e+02 5.330845240211113945e-01
3.743501939941147327e+01 3.076441103079467894e+02 5.063161495224353104e-01
3.833390925190195020e+01 3.075498288619892264e+02 5.289337500391129154e-01
3.925172761555695899e+01 3.074204846893796912e+02 5.452784634262708430e-01
4.018420443352653137e+01 3.072671596117916124e+02 5.472013937301777320e-01
4.019017814047067105e+01 3.080677473379208209e+02 5.498361015162168686e-01
3.926425020055307868e+01 3.082230948963764945e+02 5.547513025247747809e-01
3.835265276651136901e+01 3.083561201335011219e+02 5.423059566779361296e-01
3.746000402507657157e+01 3.084622572384748196e+02 5.017888304857655024e-01
3.659548148717046701e+01 3.085446718116176044e+02 5.472115278851136244e-01
3.576164987776212456e+01 3.086077360872961322e+02 5.649184356853709232e-01
3.490537986800212877e+01 3.086496768201980672e+02 6.035355764544569901e-01
3.416231093211914072e+01 3.082586343356780390e+02 6.131526438930831047e-01
3.328579893565316183e+01 3.086365973116078862e+02 6.532774291700644831e-01
3.272330681902906946e+01 3.083631565180067469e+02 6.587358699269814100e-01
3.146529324476670197e+01 3.085428796790487809e+02 6.870837976506503075e-01
3.105843704819495343e+01 3.084426371626780679e+02 6.914360873847434918e-01
3.015511232374171868e+01 3.085817120175495347e+02 7.036221576386189058e-01
2.926544034505779024e+01 3.078374267533120587e+02 6.776229692521856807e-01
2.851598566444876681e+01 3.079941929976413348e+02 6.820305828083235156e-01
2.770553761961008021e+01 3.081603672984660989e+02 6.861450676405588256e-01
2.684124044114387075e+01 3.083345060323578082e+02 6.790031425779917695e-01
2.593169646886422797e+01 3.085091219173026502e+02 6.960756841291885211e-01
2.591229537559064511e+01 3.069180744907176859e+02 6.301386078297903648e-01
2.678605765053251986e+01 3.067224353973824122e+02 6.210396742173772688e-01
2.760763239726945528e+01 3.065248846020435280e+02 5.932849553647883134e-01
2.921469074462234872e+01 3.069826893977406144e+02 6.094777468101456597e-01
2.993088808997784511e+01 3.068688931871578234e+02 6.014482292150126197e-01
3.061448399695707678e+01 3.068509999696030377e+02 5.975396889736181993e-01
3.122230363316414170e+01 3.069910153793339873e+02 6.051747093326225180e-01
3.180883521123521973e+01 3.071590268135091719e+02 6.005589066663562514e-01
3.328485377143505275e+01 3.069941365465163585e+02 5.670538487663927540e-01
3.462258404309410764e+01 3.065471263479940944e+02 5.355495976884168119e-01
3.451441319373007133e+01 3.072093502679712174e+02 5.698315925686007200e-01
3.565762631480692590e+01 3.068157000642038952e+02 5.272271527492152776e-01
3.654565686951072223e+01 3.068409177583690166e+02 5.147534700192061274e-01
3.742274403708449881e+01 3.068077976679731478e+02 5.045068981536022790e-01
3.832144889301983426e+01 3.067257119051021732e+02 5.319915844378008130e-01
3.924177143731672146e+01 3.066053239660918734e+02 5.325471597961950465e-01
4.017991251344726322e+01 3.064626619802316441e+02 5.346690546575392222e-01
2.588328791574471666e+01 3.061275450241474232e+02 5.857535292675026817e-01
2.673518527965590508e+01 3.059250015372072653e+02 5.551750383689398882e-01
2.754473020494812374e+01 3.057263851332335776e+02 5.378505348578792589e-01
2.840128780026202193e+01 3.063356202672399036e+02 5.824308290948131406e-01
2.919492134002532424e+01 3.061584002231003865e+02 5.509146641402845601e-01
2.998947986256436238e+01 3.060296714509683511e+02 5.644955510897158302e-01
3.076744923946791843e+01 3.060285308780913738e+02 5.744393090332373664e-01
3.148871717222112210e+01 3.061086243096160615e+02 5.802859638214639126e-01
3.211203783796206324e+01 3.063319919083416494e+02 5.643577131953727566e-01
3.313404289789815493e+01 3.059067414499444908e+02 5.845305296760554548e-01
3.428717183433052185e+01 3.058331920705878701e+02 5.574746639825596262e-01
3.509952870726087326e+01 3.063878391935914465e+02 5.360386174261035919e-01
3.582018110602150784e+01 3.059549869203556796e+02 5.278292203355803291e-01
3.658747449990666212e+01 3.059999907646872543e+02 5.116919581564731700e-01
3.742840997703240902e+01 3.059779041495880847e+02 5.013993732300894290e-01
3.831465279229876586e+01 3.059055503736459514e+02 5.168032593150735376e-01
3.923298410094758282e+01 3.057954649968570493e+02 5.337262850845183593e-01
4.017582745315242931e+01 3.056622201205375973e+02 5.401438204624257056e-01
2.579993687693297133e+01 3.045697679146412042e+02 5.280736494288950089e-01
2.658472253600003654e+01 3.043567118774887490e+02 5.089894644594308293e-01
2.742253661670451592e+01 3.039869499477705403e+02 5.423331837255898069e-01
2.825641027078448531e+01 3.039506964173220354e+02 5.838223383152828516e-01
2.902076894659036554e+01 3.045982118252110808e+02 5.371752170670192061e-01
3.025509118928677665e+01 3.040032534270329734e+02 5.423555357349910677e-01
3.058307326368117884e+01 3.043634687359008240e+02 5.134763726758841962e-01
3.148272160204771808e+01 3.042934051917619058e+02 5.250045322389121916e-01
3.256637928666448545e+01 3.042231823496806555e+02 5.537138849460091494e-01
3.312305914788345262e+01 3.046944173960442299e+02 5.978821175486033201e-01
3.424720080591225013e+01 3.047126471405384791e+02 5.798021804320524497e-01
3.499562791474684786e+01 3.044916649220116938e+02 5.544807448924380378e-01
3.577887473883250635e+01 3.044166856766670435e+02 5.325841892018051693e-01
3.658675637691532501e+01 3.043822686948411729e+02 5.004678004132991909e-01
3.742732186093080315e+01 3.043443467710108052e+02 5.235233688739917568e-01
3.830578473016008445e+01 3.042805929607164330e+02 5.425716512571040484e-01
3.921968116684613648e+01 3.041876700361673329e+02 5.644435735346918781e-01
4.016691734634211741e+01 3.040711859340430010e+02 5.405119868104113490e-01
3.922653781189437439e+01 3.049911742880037764e+02 5.538063200253102725e-01
3.831387244319343210e+01 3.050859472162551356e+02 5.383847979438117770e-01
3.743709304261591342e+01 3.051481734561654093e+02 5.111695454503765168e-01
3.660855906183201114e+01 3.051753167536045339e+02 5.190496659373329269e-01
3.583888257595929616e+01 3.051801565183435514e+02 5.567880810542603642e-01
3.512765491078960167e+01 3.051943645230996935e+02 5.608222471986831215e-01
3.456228862041341188e+01 3.052397724209240550e+02 5.761035943073911092e-01
3.366734087633427919e+01 3.052551801023552684e+02 5.976302059457790916e-01
3.252472310780758846e+01 3.054827439475836854e+02 5.997705900994988459e-01
3.181677997238506350e+01 3.050597103498264460e+02 6.006138556986881927e-01
3.090366388480430970e+01 3.052071139056198490e+02 5.954219961268032435e-01
2.914314584960227705e+01 3.053469812274156538e+02 5.316678093661671989e-01
2.833282057520472463e+01 3.055460456176280672e+02 5.295748779691028529e-01
2.748952555110754403e+01 3.049012219369724903e+02 5.164807671960104374e-01
2.667860492415978868e+01 3.051257626408468582e+02 5.137801285877624524e-01
2.646228508866098750e+01 3.036394012594396941e+02 5.188772486449836352e-01
2.775487115550528827e+01 3.030812400698978877e+02 5.040183338891475184e-01
2.840071262915422068e+01 3.032008597250209050e+02 5.358733042748560216e-01
2.911329581453701465e+01 3.031197306461245375e+02 5.872601835491794153e-01
3.003164730462820131e+01 3.036925784789469844e+02 5.896035975269701135e-01
3.068216919112217411e+01 3.034452873037917016e+02 5.799834325755121034e-01
3.108294909175097587e+01 3.037911490216945367e+02 5.494888017547985282e-01
3.206299188762076113e+01 3.036962493857243430e+02 5.149866733213553927e-01
3.313289423746941509e+01 3.034855456421142890e+02 5.177079415890056824e-01
3.388977905244762212e+01 3.038801875890378028e+02 5.452016224113507281e-01
3.487483189138793449e+01 3.037008139406952978e+02 5.237226846041915795e-01
3.574438465380697494e+01 3.036071834015108948e+02 5.208482844648676391e-01
3.658905537955966025e+01 3.035557249678527114e+02 5.063380654898615996e-01
3.744263621212265747e+01 3.035113089126605814e+02 5.292323862351081543e-01
3.832101667379556886e+01 3.034528311353326444e+02 5.471589119435518178e-01
3.923070527974561372e+01 3.033722132892228842e+02 5.595845558315436508e-01
2.573526880840354636e+01 3.021749806242136174e+02 5.498441904898350163e-01
2.660613504636405935e+01 3.018097721419312052e+02 5.123625645582097210e-01
2.749256453997240968e+01 3.018526572749279353e+02 5.993374311798903564e-01
2.819330121867879413e+01 3.015150325583019253e+02 5.480562164721436424e-01
3.166108350800558568e+01 3.018940400310909808e+02 5.576669320228145876e-01
3.272018710439466815e+01 3.020129400803595559e+02 5.681623621714503303e-01
3.345030123605728534e+01 3.018663588599349623e+02 6.234396017331054196e-01
3.419753932157837539e+01 3.018557504732323196e+02 5.671309305877828555e-01
3.498809350959207620e+01 3.018559182534424963e+02 5.416337668663927518e-01
3.582155512589014990e+01 3.018434889414062354e+02 5.186192514805690879e-01
3.667256955169727206e+01 3.018260052567920866e+02 5.162599402479762789e-01
3.753023712634200137e+01 3.018048491092833387e+02 5.262930425526791689e-01
3.839812660155160984e+01 3.017746112749616714e+02 5.284789815157304727e-01
3.928406164982169457e+01 3.017292803506234122e+02 5.280348230611285887e-01
4.019461301243343598e+01 3.016647114171223052e+02 5.027090054173986022e-01
4.017796332247085900e+01 3.024729913645545025e+02 5.192696748170347876e-01
3.925275350554456821e+01 3.025549659515975236e+02 5.387829912902732943e-01
3.835394606061046829e+01 3.026168239427685762e+02 5.372533678675966984e-01
3.747942529979252413e+01 3.026606556959816317e+02 5.306317419230526244e-01
3.661995316784175714e+01 3.026962420448342641e+02 5.111153071336089759e-01
3.576489404462452626e+01 3.027379110462236440e+02 5.046742671280651793e-01
3.491215578728086655e+01 3.027871255701284099e+02 5.036045208284652963e-01
3.411186909867996064e+01 3.027957785124454517e+02 5.249309270599276100e-01
3.343543928553209810e+01 3.026918749253728720e+02 5.458215012035764202e-01
3.292513301532612502e+01 3.025972397190466268e+02 5.766043543249185221e-01
3.111162860315827317e+01 3.027319595221322288e+02 5.800792316360510181e-01
3.027785921986389894e+01 3.032022728929515551e+02 5.885918111359506044e-01
3.008141137796084763e+01 3.023844198763006830e+02 5.473126202063071100e-01
2.923363943722926450e+01 3.023264629114028708e+02 5.435536594283881806e-01
2.853953404413118022e+01 3.026305808603697756e+02 5.857144734867411051e-01
2.717614138670051460e+01 3.028387315304840399e+02 5.919241448673676631e-01
2.652405880199594534e+01 3.028119894112938937e+02 5.528880002072928956e-01
2.577259102250958378e+01 3.029710826209948209e+02 5.269365582408102044e-01
2.627515770956324559e+01 3.007401756613898556e+02 6.210439261187192805e-01
2.690151568238219681e+01 3.008363516405940459e+02 6.067356166811026519e-01
3.242698270057969268e+01 3.011206770437999012e+02 5.403423882490092645e-01
3.340417150413970404e+01 3.009779004760239332e+02 5.801659177993705452e-01
3.425506315950569558e+01 3.009353475616932201e+02 6.114899092853112172e-01
3.508501488661673307e+01 3.009263852169320899e+02 5.623362789893738833e-01
3.592401967242153660e+01 3.009232831560296972e+02 5.375011913433022093e-01
3.677197492792139144e+01 3.009179047866381325e+02 5.144183417719111473e-01
3.762455005193918822e+01 3.009089278325778309e+02 5.182031882073951934e-01
3.848223612623938550e+01 3.008951537012198969e+02 5.157833235712894204e-01
3.934877176302275359e+01 3.008741395159373724e+02 5.103938999622336103e-01
4.022940918266841237e+01 3.008417600705252539e+02 5.133847900772569028e-01
3.127927416321292498e+01 3.431235552217484610e+02 5.569016259960911652e-01
2.861590398566668725e+01 3.018483336687201017e+02 5.450527311369489647e-01
3.064605786355887318e+01 3.024679514435816827e+02 5.561052817737787146e-01
2.933308517633815882e+01 3.424873555863724732e+02 5.957528104400753310e-01
2.722153113239752642e+01 3.441146509849826316e+02 5.769479871483094158e-01
2.592017959241331582e+01 3.313540826306510780e+02 5.386186896598632590e-01
2.586359923691723495e+01 3.164038108898476480e+02 7.951698509135173287e-01
2.562598966149554869e+01 3.007484171704344931e+02 6.132638510636490015e-01
2.758858111566376792e+01 3.008486866738865615e+02 5.873960525726733550e-01
4.029742400705900707e+01 3.135598948252844025e+02 5.633062784247331312e-01
4.028693470238259522e+01 3.285878613452396735e+02 6.738517542163084961e-01
4.037130994939504092e+01 3.441283889119144987e+02 7.900398040548065604e-01
2.994852330704325993e+01 3.426176848868356615e+02 5.683652503773559683e-01
3.068161588324360167e+01 3.426814921904527864e+02 5.701381190574917879e-01
3.143687945568407827e+01 3.426759840118980946e+02 6.008435070004687351e-01
3.210793091443796499e+01 3.025138636490796671e+02 6.247460014562504771e-01
3.158465134035607846e+01 3.031616502457330853e+02 5.869375090678710105e-01
2.977334334183382936e+01 3.031036737971379580e+02 5.794558015180624189e-01
3.034901394033130018e+01 3.419554320352977470e+02 6.382902188883953221e-01
2.810110229917081170e+01 3.023408195809012682e+02 5.754898164760972046e-01
3.219366336345037638e+01 3.428282289412181854e+02 6.320751642206525744e-01
2.615959540692794150e+01 3.013714888790345867e+02 5.652492933830302047e-01
3.943095059638963562e+01 3.152463217858175426e+02 5.526347798721135129e-01
3.945706538282796316e+01 3.310455074974900640e+02 5.307385178314816265e-01
3.693473321534661125e+01 3.429008577498282193e+02 6.566187744672031812e-01
3.246773407810329815e+01 3.421648980123301840e+02 5.694136245539900276e-01
2.669595255567134018e+01 3.273108796108010665e+02 6.775735434992667949e-01
2.669995520840981129e+01 3.147101857026553375e+02 8.527508144539837076e-01
2.933561122020921985e+01 3.404225193688207014e+02 6.631344110158066130e-01
3.066673038770233006e+01 3.414838723956069657e+02 7.228148201234547710e-01
2.960656053844087410e+01 3.037543751550228421e+02 5.123772392115928387e-01
2.899701538891041253e+01 3.038418410021224645e+02 5.281756465251489230e-01
3.119021682156857977e+01 3.408737568535937044e+02 5.029157140321803832e-01
2.970323469279639994e+01 3.043950994567592829e+02 5.461965362389366030e-01
2.826499074736926431e+01 3.047500849839626653e+02 5.309325270464207991e-01
3.255765417640935055e+01 3.030747932311832642e+02 5.444268480199061511e-01
3.096767437466957062e+01 3.046137169249377052e+02 5.321226103964391552e-01
2.700264489014285374e+01 3.035245739340873001e+02 5.469820330952597232e-01
3.004041277776811469e+01 3.050891602780328071e+02 5.452995974534956547e-01
3.199577759377783082e+01 3.401309674792419742e+02 6.062428516842617299e-01
3.868020262168147383e+01 3.296648551446672855e+02 5.617144535357497803e-01
3.854113566582220329e+01 3.289963241219489305e+02 5.853403838002232407e-01
2.752520634123340670e+01 3.153124457464708712e+02 8.539287487746014538e-01
2.765386471818576197e+01 3.159872219217140241e+02 8.467383805787656037e-01
2.753081005506728118e+01 3.279051081535210415e+02 6.771681538944683831e-01
2.766043377768010458e+01 3.285802315888919338e+02 6.688316328183037118e-01
3.861276296839864131e+01 3.138265675348084187e+02 5.375270206555824437e-01
3.855661483212681873e+01 3.131036091141315865e+02 5.206448157684400169e-01
3.287148905969614532e+01 3.393574543941746811e+02 7.144178697593198679e-01
3.271558741731912789e+01 3.066453928196695529e+02 5.801705037401774234e-01
3.765873068818154934e+01 3.132922444016242594e+02 5.598784892301998939e-01
3.240310637245860903e+01 3.073916278114352281e+02 6.284201887791078800e-01
3.372426936171143552e+01 3.385737265968270435e+02 7.823602939749756402e-01
3.370181077991744445e+01 3.063777206609852897e+02 5.282007041633555167e-01
3.647743686712254885e+01 3.302791557217780110e+02 5.668549357990346760e-01
3.511747169132259216e+01 3.058449070985190019e+02 5.533162258048195392e-01
3.453073493525398163e+01 3.377752309497979581e+02 7.321393401004281376e-01
2.992928702888244175e+01 3.077014424670942958e+02 6.688339906536631130e-01
3.194040980661130646e+01 3.087315240440769344e+02 6.801035910732541323e-01
3.416506065364328038e+01 3.068583135534688608e+02 5.579769855910640119e-01
3.382636391513252505e+01 3.073643371100298509e+02 5.798249672359577778e-01
3.355500255911901064e+01 3.079680290581514441e+02 6.277139372182527488e-01
3.055911452800369332e+01 3.278999468504085826e+02 6.873017639954120961e-01
3.558495125901366407e+01 3.311170809025184667e+02 5.652007812886812310e-01
3.093854414438251155e+01 3.299493658656672324e+02 6.322436034394395277e-01
3.125490507154040642e+01 3.161151418956133625e+02 7.723604074254899476e-01
3.497271693228618972e+01 3.071019046233564040e+02 5.560760379338127724e-01
3.387481283113680774e+01 3.088356000714310312e+02 6.454583464141149252e-01
3.373660863193924087e+01 3.094769010680590213e+02 6.575116583735201026e-01
3.474865751363508082e+01 3.319512659109140600e+02 5.525387870000441071e-01
3.167237502501655655e+01 3.092558044331332212e+02 7.081291359036008259e-01
3.164270998650646760e+01 3.300152988748954499e+02 6.244848946976593318e-01
3.152129674736811893e+01 3.306571287207586920e+02 5.873580019699400356e-01
3.156773592806882789e+01 3.312839858181633872e+02 5.588196075184828082e-01
3.109713496395649202e+01 3.094711958571775767e+02 7.233995761067553154e-01
3.437033787658709372e+01 3.095993968143653774e+02 6.228710772606965707e-01
3.172739468230204452e+01 3.098820062283564312e+02 7.158434269014047890e-01
3.137703643367001405e+01 3.097292025758508203e+02 7.032005980818569757e-01
3.420681942149894894e+01 3.103791438638346563e+02 6.438912828271596833e-01
3.394765270204283780e+01 3.327897939878544662e+02 5.297369580930516575e-01
3.229766674496317336e+01 3.311328502494601480e+02 5.714780718186122099e-01
3.358871229503920830e+01 3.105923556509221726e+02 6.606043765298776904e-01
3.351256771294363546e+01 3.270363552863118457e+02 6.835741669316333091e-01
3.345535164201258738e+01 3.141811205824200215e+02 7.121581402209744560e-01
3.306664360750009024e+01 3.335896804223714867e+02 5.318865305639920438e-01
3.301597641462100796e+01 3.301109382438936564e+02 6.133996431576245190e-01
3.273788286578721340e+01 3.305948159609089316e+02 5.968534144562023247e-01
3.283203097627167466e+01 3.313417149445133418e+02 5.671991279868902058e-01
3.282891126163727336e+01 3.319097879310936037e+02 5.610268210438303926e-01
3.268247303394910119e+01 3.326174584493868451e+02 5.220769133318590161e-01
3.261796978053240537e+01 3.189251589309778865e+02 7.685685833809731138e-01
3.265089916734729769e+01 3.196947155868304549e+02 7.660164930331392341e-01
4.212794810229974019e+01 3.425016792581736240e+02 7.225347234646253280e-01
4.215882570913943539e+01 3.401144919355451748e+02 6.566028249264876937e-01
4.213872667431691355e+01 3.361283745125454629e+02 5.237003496013765691e-01
4.211684158184385751e+01 3.345399522186056060e+02 5.179319830345223696e-01
4.207110202447895375e+01 3.321877693205449873e+02 5.016394025568995385e-01
4.207836902552222114e+01 3.274885345167911055e+02 6.966891051020309700e-01
4.209481353748730470e+01 3.259005633507165385e+02 7.757384771838905513e-01
4.211328964798519792e+01 3.195260869413224896e+02 6.986294060690283469e-01
4.210331328830254449e+01 3.179318717833891128e+02 6.708186275332008730e-01
4.201569219264083443e+01 3.140424901589519209e+02 5.970627182959507007e-01
4.204985432922769917e+01 3.116838513115526439e+02 5.481631143753262769e-01
4.208280389748499317e+01 3.093162260514438913e+02 5.169770180302072360e-01
4.206373243443694321e+01 3.061653726043327879e+02 5.121957780706526409e-01
4.207295030824348459e+01 3.037727986978491117e+02 5.212364438241576803e-01
4.206130897956461467e+01 3.441319423654687171e+02 7.708647094530483024e-01
4.294736848006269980e+01 3.440931553113769041e+02 7.950059951697574512e-01
4.381252673340370052e+01 3.440739446534008152e+02 8.125906908401756557e-01
4.466838638716863130e+01 3.440638401541354483e+02 8.115471813967725101e-01
4.552046874763498607e+01 3.440583912431656017e+02 8.075712390091196458e-01
4.210195776808944856e+01 3.433075705529926154e+02 7.436032313291246476e-01
4.303324388095864350e+01 3.432314770130072930e+02 7.529189100527452494e-01
4.392710350893617743e+01 3.431888889708576471e+02 7.733056791355779058e-01
4.480088596532041123e+01 3.431657373486708593e+02 7.793129563038158070e-01
4.566464833556355529e+01 3.431536909391372774e+02 7.726062238978373964e-01
4.308458883394429506e+01 3.424051635082760185e+02 7.287140264721000404e-01
4.400575227167361447e+01 3.423408244242654632e+02 7.379706998490617176e-01
4.489911913609971350e+01 3.423032740142850798e+02 7.413559567089343938e-01
4.577571354012209781e+01 3.422838925523544162e+02 7.271783746614419730e-01
4.215285032040843305e+01 3.409084220608134501e+02 6.561866845466333142e-01
4.314397945529164247e+01 3.407853536400400571e+02 6.594401414369711611e-01
4.409782842074046982e+01 3.406933382704858104e+02 6.641534232723943498e-01
4.502225620677455709e+01 3.406322387835811583e+02 6.725099630066790901e-01
4.592451299656859476e+01 3.405991258994478130e+02 6.561700853921613730e-01
4.585444471041593317e+01 3.414382585011475157e+02 6.938286651101461810e-01
4.496405460874071025e+01 3.414660903097636719e+02 6.940443555851811830e-01
4.405233440425782021e+01 3.415191887279812590e+02 6.983332458184140501e-01
4.311113247603312004e+01 3.416008262893440701e+02 6.960506779378224929e-01
4.213566750400964622e+01 3.417109930162148999e+02 6.943289413976793112e-01
4.314851691625318608e+01 3.399870885741707411e+02 6.294989172461280535e-01
4.410712702031653976e+01 3.398873591089208617e+02 6.309878552531752449e-01
4.503826849951537525e+01 3.398192333263067439e+02 6.219041266466924789e-01
4.594791674258064518e+01 3.397814202481432631e+02 6.156109817418443653e-01
4.215892829813819276e+01 3.385158610895832112e+02 5.777349073566406812e-01
4.314679308471664854e+01 3.383708546390549827e+02 5.850126723758197755e-01
4.410548559633640764e+01 3.382579837961058615e+02 5.708996138256771102e-01
4.503913125617704338e+01 3.381833434630020747e+02 5.641911651680386885e-01
4.594988779678631374e+01 3.381467202618423471e+02 5.537592217520485027e-01
4.594896281401062055e+01 3.389690299827908575e+02 5.833455442735412388e-01
4.503648244186484817e+01 3.390108116028617360e+02 6.123125500286290546e-01
4.410273419302540532e+01 3.390855020374938249e+02 6.059985599500029574e-01
4.314291320241931516e+01 3.391925577079665004e+02 6.099922172502888484e-01
4.215340531007382197e+01 3.393256869773560993e+02 6.187894492874270735e-01
4.215235755685699814e+01 3.377186692666598447e+02 5.700982639322331735e-01
4.313587156081594287e+01 3.375675010363826232e+02 5.501323721504594033e-01
4.408975920736263276e+01 3.374516596680420548e+02 5.506748704877189038e-01
4.501761615681428452e+01 3.373766339002450536e+02 5.404508096276590123e-01
4.591968795005315940e+01 3.373418568900035552e+02 5.357347532074401286e-01
4.214357190227472216e+01 3.369257199057673802e+02 5.384215384375520275e-01
4.312267121571326101e+01 3.367686940404150846e+02 5.269926361372664347e-01
4.407155050097627225e+01 3.366470759648374838e+02 5.317333854359007628e-01
4.499318652081463199e+01 3.365682828712650121e+02 5.226854354775465339e-01
4.588540304302516404e+01 3.365331402450635210e+02 5.086246544213516296e-01
4.212932380395520227e+01 3.353307208608759993e+02 5.045154540979728264e-01
4.309731659693790107e+01 3.351515833964984949e+02 5.008042109071206838e-01
4.403716300494951241e+01 3.350077704852371880e+02 5.081125373435283477e-01
4.495961973677793821e+01 3.349114220675634215e+02 5.068824415422302776e-01
4.585241311188309510e+01 3.348793055230912614e+02 5.133118378818614103e-01
4.585713388761290332e+01 3.357187303581051765e+02 5.004749353826656311e-01
4.497004849712720898e+01 3.357571972521812995e+02 5.148499424567745120e-01
4.405106129160108708e+01 3.358455588179724600e+02 5.153222937303257867e-01
4.310587689208027484e+01 3.359774518219706465e+02 5.227451367345523625e-01
4.307418025503738335e+01 3.343606953195227334e+02 5.048459895192964897e-01
4.401406702593372700e+01 3.342058968824062504e+02 5.087798657090281118e-01
4.495303049584123301e+01 3.340866769971177064e+02 5.127351526504581036e-01
4.588033245562745321e+01 3.340386917016840584e+02 5.092436967229776457e-01
4.208543253035482223e+01 3.329710816883012967e+02 5.201008277866112639e-01
4.301242672314478455e+01 3.327955895613256985e+02 5.217330279897691714e-01
4.391501146137746048e+01 3.326424316953508651e+02 5.234275102409230440e-01
4.479540334014081537e+01 3.324994438952323321e+02 5.272595285789754005e-01
4.558977686612472269e+01 3.323290264516836601e+02 5.341028197104812358e-01
4.596503733286540694e+01 3.331044296507263880e+02 5.254366623768060851e-01
4.492022387946745710e+01 3.332801454719163985e+02 5.176867534489736355e-01
4.397397322707428202e+01 3.334292318037978475e+02 5.208792889819071625e-01
4.304127104966485717e+01 3.335912508585269052e+02 5.093677702892333015e-01
4.209538870859510951e+01 3.337682722967719542e+02 5.074652683517243412e-01
4.298187874653059737e+01 3.320238708205335456e+02 5.244200490770367651e-01
4.386666345258508670e+01 3.318798777692624640e+02 5.185519525831243648e-01
4.471546128330427905e+01 3.317521903758171220e+02 5.170474203997758034e-01
4.205317922185963653e+01 3.298452921146886752e+02 5.369121663772202790e-01
4.296065123272174446e+01 3.304747913615908033e+02 5.213580340751196029e-01
4.384989099218137198e+01 3.303577118059541817e+02 5.123574928645795445e-01
4.476487554496902987e+01 3.295232052221508638e+02 5.280599485940287163e-01
4.564335859564070574e+01 3.294936643924222608e+02 5.213570444368568202e-01
4.557006800585487127e+01 3.302401454297159376e+02 5.075585197106089463e-01
4.384478004189890044e+01 3.311204221675730537e+02 5.084583818108004971e-01
4.296071177704888555e+01 3.312591320489606233e+02 5.038240806658313975e-01
4.205213315042966826e+01 3.306294360234871874e+02 5.192493387591664566e-01
4.205689597083107145e+01 3.290655760954544462e+02 5.736839197981586924e-01
4.296471611157420512e+01 3.297107741482119536e+02 5.250892189904117213e-01
4.386615050759128565e+01 3.296045696064334720e+02 5.391819294531696727e-01
4.479990043821758405e+01 3.287614676840306629e+02 5.625305914052357581e-01
4.569254917965237439e+01 3.287292078435696681e+02 5.627611760372409622e-01
4.206482055053854907e+01 3.282818142272251407e+02 6.203657848543416842e-01
4.297719833368554987e+01 3.289392082742689354e+02 5.581044689408780624e-01
4.391663270391522644e+01 3.280553590121483012e+02 6.007435267749732244e-01
4.482755237785040947e+01 3.279857249156216312e+02 6.211283695537159755e-01
4.572654481933965087e+01 3.279525859487973776e+02 6.162642693017760243e-01
4.208711431721977192e+01 3.266949879316479723e+02 7.879921366587270271e-01
4.302866605711233916e+01 3.265660459016406207e+02 8.047976647219169388e-01
4.395531043823439887e+01 3.264606901626971194e+02 8.007344047990593294e-01
4.487070702880394890e+01 3.263826897891975136e+02 7.806150570112062592e-01
4.577341453747779099e+01 3.263414727810676936e+02 7.744042929744771042e-01
4.574705421015720219e+01 3.271648434202949716e+02 6.803610765189160858e-01
4.484678865601122766e+01 3.272008521646441750e+02 6.926665874942696810e-01
4.393342702754821261e+01 3.272717502196273358e+02 6.988226271507151921e-01
4.300877220028735337e+01 3.273716125523535538e+02 6.813659728147044570e-01
4.303825224224231505e+01 3.257689973746332726e+02 7.903818705703097303e-01
4.396555588381544766e+01 3.256600659658303130e+02 7.850926231593478022e-01
4.488019062493516032e+01 3.255796743019640189e+02 7.771194873945923565e-01
4.578113393918769702e+01 3.255359713700181032e+02 7.900245436367248075e-01
4.210782888603481666e+01 3.243050102360634810e+02 8.373493994720758726e-01
4.305703780152336435e+01 3.241584098618353664e+02 8.383763422434346024e-01
4.398477029874699440e+01 3.240374837861513697e+02 8.197209977927142344e-01
4.489665531834264556e+01 3.239474301376193353e+02 8.212157515030006349e-01
4.579271304175260582e+01 3.238952879110424874e+02 8.406085069392534859e-01
4.578287795216660072e+01 3.247315897760283860e+02 8.119377519532733345e-01
4.488552861644439673e+01 3.247793672125388866e+02 8.024079661306811051e-01
4.397249493642004836e+01 3.248626168926070363e+02 8.028381615370777658e-01
4.304422594918649736e+01 3.249754520235788391e+02 8.079967890138906039e-01
4.209772975591103261e+01 3.251115197911112773e+02 7.788827561958977519e-01
4.210908181724919075e+01 3.235111357185965062e+02 8.497822430653582115e-01
4.306017769760013891e+01 3.233590834178376099e+02 8.462954632994723614e-01
4.398840464016205942e+01 3.232342330972749664e+02 8.267416555150202129e-01
4.489883155054580754e+01 3.231423022170810668e+02 8.224093492027153562e-01
4.579141974765347101e+01 3.230887157312757836e+02 8.547821076806685348e-01
4.211692398940026294e+01 3.219125103353832742e+02 7.622469343772493300e-01
4.307017592051201405e+01 3.217449192655932393e+02 7.826468720620841646e-01
4.399803286996368001e+01 3.216081859780955483e+02 8.077868773742357122e-01
4.490630541137348075e+01 3.215087194350804793e+02 8.199585271431361067e-01
4.579583275638701423e+01 3.214519307641976411e+02 8.454709563363203007e-01
4.578809317323469941e+01 3.222851594418677337e+02 8.375630519324873680e-01
4.489821601655327754e+01 3.223414007761832067e+02 8.394117222540830037e-01
4.398897981126986423e+01 3.224367530253952054e+02 8.062880091039081876e-01
4.306007510860136733e+01 3.225662317477983834e+02 7.969058112435625230e-01
4.210819887914512094e+01 3.227223838640947520e+02 8.052942047824261929e-01
4.211653381484759961e+01 3.211160939499136475e+02 7.326092439299282111e-01
4.307042314318113796e+01 3.209418542777796119e+02 7.529409574646076519e-01
4.399883340051137282e+01 3.208005517773980273e+02 7.944036952976863963e-01
4.490768111302894994e+01 3.206983544622464706e+02 8.077263189044574521e-01
4.579696123537334529e+01 3.206401980939275518e+02 8.390900518839146116e-01
4.211355705209668798e+01 3.203230403144410161e+02 6.967252174514607654e-01
4.306810227730757390e+01 3.201421383104092229e+02 7.298449516636470458e-01
4.399834063695993791e+01 3.199941763259347454e+02 7.876425804535091002e-01
4.490891218101408811e+01 3.198865566788082333e+02 7.933247828773443144e-01
4.579995986135347152e+01 3.198240214221316933e+02 8.290428517171947176e-01
4.211021029623552181e+01 3.187269987317199593e+02 6.811878621695937053e-01
4.306413998745387772e+01 3.185254419757919777e+02 7.163048653537420485e-01
4.399639144598354079e+01 3.183586876218219572e+02 7.650328756128003116e-01
4.491363463853075899e+01 3.182349685924444316e+02 7.973840858709534407e-01
4.581591160976712729e+01 3.181609202692361009e+02 8.201765777987968242e-01
4.580346975054055747e+01 3.190058071168904803e+02 8.273079259821326525e-01
4.490806960579475771e+01 3.190762147997814964e+02 8.010191576483866038e-01
4.399415298766633953e+01 3.191928271139349818e+02 7.704897188112739270e-01
4.306182080336716922e+01 3.193494996839805822e+02 7.346263066551452781e-01
4.305492211364730082e+01 3.177251878894016954e+02 7.133801641609330835e-01
4.399076586892040552e+01 3.175507657116727387e+02 7.464207558978566137e-01
4.491361277530149465e+01 3.174202699106712657e+02 7.830432036323187184e-01
4.582371173724656899e+01 3.173396320529195123e+02 8.138010485325493093e-01
4.205410420463532972e+01 3.155789937188764611e+02 6.281881250279744977e-01
4.302474413014340371e+01 3.161251620748084861e+02 6.725357555718233238e-01
4.397481412050674976e+01 3.159182164446866636e+02 7.257106088714357917e-01
4.491708230160379856e+01 3.157571447261959747e+02 7.593320427429325337e-01
4.584637717882495878e+01 3.156611809896662635e+02 7.963149651554798369e-01
4.583282702205437431e+01 3.165133549920562359e+02 7.989399975728339598e-01
4.491357241241672682e+01 3.166048530767073430e+02 7.744585057329952393e-01
4.398267647410019521e+01 3.167483880981564539e+02 7.353202545102873744e-01
4.304049070055951631e+01 3.169358315440351817e+02 7.105509778533155574e-01
4.209017348752703924e+01 3.171498694516347996e+02 6.552288005075161959e-01
4.203045323595411276e+01 3.148150262077796810e+02 6.083277691923376640e-01
4.299175251721447921e+01 3.153555967450543562e+02 6.692950648900913846e-01
4.395182073048973592e+01 3.151221972131182838e+02 7.081490917528741047e-01
4.492122958801266464e+01 3.149110343077279026e+02 7.434974776657539142e-01
4.586573622742690759e+01 3.148205350446562534e+02 7.805022622958379674e-01
4.294149736211728907e+01 3.146171452883370989e+02 6.451524508170987104e-01
4.441344936167779878e+01 3.135396012075815975e+02 6.883036047085101528e-01
4.490741370891745277e+01 3.139834726717372746e+02 7.192052738921110855e-01
4.591650600930475434e+01 3.139663475851387489e+02 7.528522760953417770e-01
4.202959047929245173e+01 3.124722521861596647e+02 5.685228710421759146e-01
4.289007000157528182e+01 3.131094439711860105e+02 6.135375524889103982e-01
4.378555087209058172e+01 3.122210509788408785e+02 6.322051477232089045e-01
4.463231710427696441e+01 3.121580650043284209e+02 6.499634170126120658e-01
4.542847500612450773e+01 3.121634773600051176e+02 6.927877659400498711e-01
4.526354048649608330e+01 3.130225101209366585e+02 7.022051238691700004e-01
4.453317913216433510e+01 3.129242736762510617e+02 6.816478820913883796e-01
4.372572803151891918e+01 3.129884421867390074e+02 6.549099301304996956e-01
4.289111607300525009e+01 3.138817906232006294e+02 6.319397866560012567e-01
4.201606218575109608e+01 3.132607053629306506e+02 5.998232646801504586e-01
4.295286960489779915e+01 3.115484530848601707e+02 5.732835276340979558e-01
4.383607511308615301e+01 3.114409222265634298e+02 5.980014574128753591e-01
4.470037229155232694e+01 3.113692538618043955e+02 6.262913059288863771e-01
4.552576637625946177e+01 3.113384913956499531e+02 6.522753793921779453e-01
4.207689073486799458e+01 3.101048638011246226e+02 5.121915641177183787e-01
4.300610320453275648e+01 3.099641196754295720e+02 5.399185575245130098e-01
4.391135693852002930e+01 3.098482425556309749e+02 5.666155196982596287e-01
4.479398727560058546e+01 3.097586597408076727e+02 6.024701898976676517e-01
4.564726034116726794e+01 3.096992348403970254e+02 6.257278290421512956e-01
4.558665715149031428e+01 3.105242073951266661e+02 6.400449222923163539e-01
4.474646166058514041e+01 3.105731427127896040e+02 6.194053382914659345e-01
4.387132368398776094e+01 3.106548762595563744e+02 5.835733637394521223e-01
4.297475469737085518e+01 3.107652504148270509e+02 5.522775998226069349e-01
4.205880479892273627e+01 3.109002494890569324e+02 5.294925413621995869e-01
4.300998308683008986e+01 3.091758315951004192e+02 5.161977606142723607e-01
4.391659234103050125e+01 3.090571598363533781e+02 5.606069092937375764e-01
4.480106928008868294e+01 3.089642510280193051e+02 5.924495875710177328e-01
4.566025550827241375e+01 3.089011642160864994e+02 6.270809572966367096e-01
4.207951936773782364e+01 3.077348594879039183e+02 5.096441902248235456e-01
4.300355697921928311e+01 3.075922222871352005e+02 5.230727635432553813e-01
4.390565063568737969e+01 3.074729577551325406e+02 5.572899520724676758e-01
4.478957258508017958e+01 3.073798122470076919e+02 5.914361495320721307e-01
4.565598545142240994e+01 3.073160177967324103e+02 6.200624184485877821e-01
4.565610822186354767e+01 3.081157173915657381e+02 6.139183201784236266e-01
4.479250898494630917e+01 3.081800317127438120e+02 5.795023708448692190e-01
4.390755946377905161e+01 3.082746370974085721e+02 5.554589725802129285e-01
4.300191555523911546e+01 3.083948237169666413e+02 5.100998759678656569e-01
4.207592707099438201e+01 3.085346968540458192e+02 5.185641736825523651e-01
4.207017872349011611e+01 3.069509604392989672e+02 5.146299908602066653e-01
4.298906334001750906e+01 3.068110139985228102e+02 5.271915456927619426e-01
4.388550955619327709e+01 3.066962248351948119e+02 5.638212907408806096e-01
4.476532794563568984e+01 3.066072590763220660e+02 5.986706777296092463e-01
4.563059046976232480e+01 3.065461714638110493e+02 6.174330199750162063e-01
4.297500023825312354e+01 3.060323363177434999e+02 5.410412573805785108e-01
4.386723862369288440e+01 3.059217440002702801e+02 5.986999249262561218e-01
4.474342267172023924e+01 3.058370326231096215e+02 6.051919487971539890e-01
4.560700172719510448e+01 3.057795233678469344e+02 6.108595113370044460e-01
4.206402001999084916e+01 3.045804482985641357e+02 5.047291889938547715e-01
4.297112035595579016e+01 3.044469089438900937e+02 5.248128861185463734e-01
4.385769280144767635e+01 3.043438798699658037e+02 5.468721089570875993e-01
4.472929902562874815e+01 3.042706522077561431e+02 5.407372363939011439e-01
4.558924373968855548e+01 3.042240457970927991e+02 5.486484657638555085e-01
4.559400656008995156e+01 3.050101208446608894e+02 5.854677223767553729e-01
4.473069490872661902e+01 3.050644978341795195e+02 5.915644961119466139e-01
4.385574192868438104e+01 3.051462356257716237e+02 6.098135433365872160e-01
4.296578236444658216e+01 3.052543404873760551e+02 5.621607462207147687e-01
4.205808667593143468e+01 3.053841123606898122e+02 5.051508106120783381e-01
4.299119920933593875e+01 3.036277286143484844e+02 5.042203303964559735e-01
4.388509920019819788e+01 3.035283990431236134e+02 5.066928332661821965e-01
4.476290617255021687e+01 3.034655822235720848e+02 5.031373513731136615e-01
4.562629854968305665e+01 3.034297052473816052e+02 5.038860596627527944e-01
4.202992010951794555e+01 3.021846782864310512e+02 5.367013174944416098e-01
4.257512513895761685e+01 3.013514113012044504e+02 5.338108528198850511e-01
4.405358565368533164e+01 3.017980502208484950e+02 5.579890121469884834e-01
4.495750573068872313e+01 3.017751501742721416e+02 5.422874918637704544e-01
4.582595019556376315e+01 3.017657429007552992e+02 5.433940536158676782e-01
4.571373464878963944e+01 3.026063282451368650e+02 5.291870668359992536e-01
4.484360671526283681e+01 3.026295212298664978e+02 5.290211842458130143e-01
4.394888601241045478e+01 3.026755847068951084e+02 5.274482348947600041e-01
4.303117023775421046e+01 3.027646666899984211e+02 5.376739984470567668e-01
4.207843125163621778e+01 3.029588096929946346e+02 5.410052639850039258e-01
4.190998516103390159e+01 3.014837685031203591e+02 5.384166538786190337e-01
4.271704608712665419e+01 3.007272674380974991e+02 5.341655641063943749e-01
4.346159331366391143e+01 3.008425856067192967e+02 5.349000488434753064e-01
4.427879709633889149e+01 3.008940363030665708e+02 5.448139038436424775e-01
4.514175893603433565e+01 3.008970794879584787e+02 5.439866922398952642e-01
4.600000000000000000e+01 3.008942386974248393e+02 5.460371113876215654e-01
4.205420679363409420e+01 3.314170233222343995e+02 5.016220348327200540e-01
4.207641983454578849e+01 3.163597153253933811e+02 6.433145091730889664e-01
4.192119427048851321e+01 3.007375425876042527e+02 5.252593092370719807e-01
4.305972697872033450e+01 3.018133014484428713e+02 5.467841096891256081e-01
4.298953592212653518e+01 3.281629286330831405e+02 6.048356876986058506e-01
4.291203581981783088e+01 3.123362929011607889e+02 6.017388360742931264e-01
4.372753427061182663e+01 3.137168809052622009e+02 6.725664408263510863e-01
4.387276161175725520e+01 3.143875634713641034e+02 6.853556583009405845e-01
4.388754283651293520e+01 3.288404266922693751e+02 5.532494282153835874e-01
4.471679662207499462e+01 3.302805417181089069e+02 5.048255364515970012e-01
4.469415136193902072e+01 3.310220670718524048e+02 5.079616828425951303e-01
4.551398209569704534e+01 3.309536304710412651e+02 5.171949550869409107e-01
4.549971381593513797e+01 3.316377252661170587e+02 5.318535209301014088e-01
4.028545641172831893e+01 7.894736652641193286e-01 5.189542429238285237e-01
4.028545641172831893e+01 1.578947367930001011e+00 5.081683015446544216e-01
4.028545641172831893e+01 2.368420977872076616e+00 5.177453434292115242e-01
4.028545641172831893e+01 3.157894920141340656e+00 5.448838299687328579e-01
4.028545641172831893e+01 3.947368358361377449e+00 5.782116832796291295e-01
4.028545641172831893e+01 4.736842256387371997e+00 5.778045756333143324e-01
4.028545641172831893e+01 5.526315548994112703e+00 5.870342520926801200e-01
4.028545641172831893e+01 6.315789527672448500e+00 5.734637029962554866e-01
4.028545641172831893e+01 7.105262953799174497e+00 6.094019559708742095e-01
4.028545641172831893e+01 7.894736822106574792e+00 6.397136679529695780e-01
4.028545641172831893e+01 8.684210383687709367e+00 6.359693682367340006e-01
4.028545641172831893e+01 9.473684923066079122e+00 6.465322403124689199e-01
4.028545641172831893e+01 1.026315804021128386e+01 6.580462223538308120e-01
4.028545641172831893e+01 1.105263205270487958e+01 6.494775594707153932e-01
4.028545641172831893e+01 1.184210527553174330e+01 6.380677183846197309e-01
4.028545641172831893e+01 1.263157785204498218e+01 6.175314085024946609e-01
4.028545641172831893e+01 1.342105232616219190e+01 6.057247774015355191e-01
4.028545641172831893e+01 1.421052666294080602e+01 5.965765887752051411e-01
4.028545641172831893e+01 1.499999989360930819e+01 6.001908415484871195e-01
4.028545641172831893e+01 1.578947361783115966e+01 5.763514894676906586e-01
4.028545641172831893e+01 1.657894659073297916e+01 5.592606951135726812e-01
4.028545641172831893e+01 1.736841916292352650e+01 5.484146977574335668e-01
4.028545641172831893e+01 1.815789408860959142e+01 5.370198785275163145e-01
4.028545641172831893e+01 1.894736854253368818e+01 5.281746385025843926e-01
4.028545641172831893e+01 1.973684239567033671e+01 5.000116302887718245e-01
4.028545641172831893e+01 2.052631646988038838e+01 5.209944216753816804e-01
4.028545641172831893e+01 2.131578876009536927e+01 5.367235499243658836e-01
4.028545641172831893e+01 2.210526285260279877e+01 5.456825722255541633e-01
4.028545641172831893e+01 2.289473572004411039e+01 5.710167091641646930e-01
4.028545641172831893e+01 2.368420986148022322e+01 5.981195013808652261e-01
4.028545641172831893e+01 2.447368447640081612e+01 6.572936903869012193e-01
4.028545641172831893e+01 2.526315739249692882e+01 6.971743615387294701e-01
4.028545641172831893e+01 2.605263310490014561e+01 7.328082916368142685e-01
4.028545641172831893e+01 2.684210491003450727e+01 7.851256902562593343e-01
4.028545641172831893e+01 2.763157925168302498e+01 8.071622739637750454e-01
4.028545641172831893e+01 2.842105187910176767e+01 8.205236479258344318e-01
4.028545641172831893e+01 2.921052732843206456e+01 8.113752029729398574e-01
4.028545641172831893e+01 3.000000082461344775e+01 8.087209903905766550e-01
4.028545641172831893e+01 3.078947211165050035e+01 7.688709733772465249e-01
4.028545641172831893e+01 3.157894777432792921e+01 7.552210632909605037e-01
4.028545641172831893e+01 3.236842025086797747e+01 7.393963364513872483e-01
4.028545641172831893e+01 3.315789371755550263e+01 7.259183699014174485e-01
4.028545641172831893e+01 3.394736708353536869e+01 7.006591814543763341e-01
4.028545641172831893e+01 3.473683947932686067e+01 6.719158353032453901e-01
4.028545641172831893e+01 3.552631601645720849e+01 6.450129503303607681e-01
4.028545641172831893e+01 3.631579015766080687e+01 6.167697505254062795e-01
4.028545641172831893e+01 3.710526288183825727e+01 6.057604585749482018e-01
4.028545641172831893e+01 3.789473761802329932e+01 5.948059365235285334e-01
4.028545641172831893e+01 3.868420966684608686e+01 6.121712971249131385e-01
4.028545641172831893e+01 3.947368533485720832e+01 6.276131177591820487e-01
4.028545641172831893e+01 4.026315766928073714e+01 6.421998933643219276e-01
4.028545641172831893e+01 4.105262962645296199e+01 6.892193563765132147e-01
4.028545641172831893e+01 4.184210657928029065e+01 7.113131513696269170e-01
4.028545641172831893e+01 4.263158013193491769e+01 7.371611774398643124e-01
4.028545641172831893e+01 4.342105253601766890e+01 7.546351060469390637e-01
4.028545641172831893e+01 4.421052388672472233e+01 7.903632647926134291e-01
4.028545641172831893e+01 4.500000000000000000e+01 8.271736177768326259e-01
4.028545641172831893e+01 4.578947611327527767e+01 8.351735230218604311e-01
4.028545641172831893e+01 4.657894746398233110e+01 8.712192381639182193e-01
4.028545641172831893e+01 4.736841986806508942e+01 8.842073760990170062e-01
4.028545641172831893e+01 4.815789342071971646e+01 8.927883445525548467e-01
4.028545641172831893e+01 4.894737037354705933e+01 8.825888209262985340e-01
4.028545641172831893e+01 4.973684233071926286e+01 8.945950012991085165e-01
4.028545641172831893e+01 5.052631466514279879e+01 9.017412833079756496e-01
4.028545641172831893e+01 5.131579033315389893e+01 8.949066596685834041e-01
4.028545641172831893e+01 5.210526238197672200e+01 9.044360623975638003e-01
4.028545641172831893e+01 5.289473711816174983e+01 9.104799642831400419e-01
4.028545641172831893e+01 5.368420984233916471e+01 9.064334851987708719e-01
4.028545641172831893e+01 5.447368398354278440e+01 8.947638504401929094e-01
4.028545641172831893e+01 5.526316052067313933e+01 8.592067775741542013e-01
4.028545641172831893e+01 5.605263291646463131e+01 8.391308697918931081e-01
4.028545641172831893e+01 5.684210628244449737e+01 8.121635773299858974e-01
4.028545641172831893e+01 5.763157974913201542e+01 7.801753507358009099e-01
4.028545641172831893e+01 5.842105222567207790e+01 7.405756561523411108e-01
4.028545641172831893e+01 5.921052788834949610e+01 7.000192483791519704e-01
4.028545641172831893e+01 5.999999917538654159e+01 6.546410803064871553e-01
4.028545641172831893e+01 6.078947267156793544e+01 6.525280490627348717e-01
4.028545641172831893e+01 6.157894812089823944e+01 6.454596622276672635e-01
4.028545641172831893e+01 6.236842074831697147e+01 5.996302799020126750e-01
4.028545641172831893e+01 6.315789508996548562e+01 6.224373690851106034e-01
4.028545641172831893e+01 6.394736689509985439e+01 6.095228635614097223e-01
4.028545641172831893e+01 6.473684260750307828e+01 5.492331612398611007e-01
4.028545641172831893e+01 6.552631552359919453e+01 5.695852381303335710e-01
4.028545641172831893e+01 6.631579013851977322e+01 6.246297382896700556e-01
