31.338240, 180.663084, 0.141000
31.338240, 181.060626, 0.143000
31.338240, 181.458169, 0.148000
31.338240, 181.855711, 0.148000
31.338240, 182.253253, 0.131000
31.338240, 182.650795, 0.145000
31.338240, 183.048338, 0.136000
31.338240, 183.445880, 0.141000
31.338240, 183.843422, 0.141000
31.338240, 184.240965, 0.138000
31.338240, 184.638507, 0.134000
31.338240, 185.036049, 0.143000
31.338240, 185.433591, 0.141000
31.338240, 185.831134, 0.138000
31.338240, 186.228676, 0.143000
31.338240, 186.626218, 0.148000
31.338240, 187.023760, 0.152000
31.338240, 187.421303, 0.138000
31.338240, 187.818845, 0.136000
31.338240, 188.216387, 0.150000
31.338240, 188.613930, 0.154000
31.338240, 189.011472, 0.152000
31.338240, 189.409014, 0.159000
31.338240, 189.806556, 0.157000
31.338240, 190.204099, 0.173000
31.338240, 190.601641, 0.166000
29.367180, 179.072915, 0.145000
29.367180, 179.470457, 0.148000
29.367180, 179.868000, 0.168000
29.367180, 180.265542, 0.159000
29.367180, 180.663084, 0.136000
29.367180, 181.060626, 0.145000
29.367180, 181.458169, 0.150000
29.367180, 181.855711, 0.143000
29.367180, 182.253253, 0.134000
29.367180, 182.650795, 0.136000
29.367180, 183.048338, 0.143000
29.367180, 183.445880, 0.143000
29.367180, 183.843422, 0.145000
29.367180, 184.240965, 0.150000
29.367180, 184.638507, 0.148000
29.367180, 185.036049, 0.148000
29.367180, 185.433591, 0.157000
29.367180, 185.831134, 0.152000
29.367180, 186.228676, 0.148000
29.367180, 186.626218, 0.148000
29.367180, 187.023760, 0.154000
29.367180, 187.421303, 0.152000
29.367180, 187.818845, 0.164000
29.367180, 188.216387, 0.168000
29.367180, 188.613930, 0.166000
29.367180, 189.011472, 0.168000
29.367180, 189.409014, 0.173000
29.367180, 189.806556, 0.154000
29.367180, 190.204099, 0.171000
29.367180, 190.601641, 0.164000
27.396140, 179.072915, 0.157000
27.396140, 179.470457, 0.171000
27.396140, 179.868000, 0.161000
27.396140, 180.265542, 0.150000
27.396140, 180.663084, 0.145000
27.396140, 181.060626, 0.131000
27.396140, 181.458169, 0.150000
27.396140, 181.855711, 0.145000
27.396140, 182.253253, 0.143000
27.396140, 182.650795, 0.141000
27.396140, 183.048338, 0.145000
27.396140, 183.445880, 0.143000
27.396140, 183.843422, 0.138000
27.396140, 184.240965, 0.148000
27.396140, 184.638507, 0.145000
27.396140, 185.036049, 0.157000
27.396140, 185.433591, 0.154000
27.396140, 185.831134, 0.145000
27.396140, 186.228676, 0.145000
27.396140, 186.626218, 0.145000
27.396140, 187.023760, 0.161000
27.396140, 187.421303, 0.164000
27.396140, 187.818845, 0.164000
27.396140, 188.216387, 0.171000
27.396140, 188.613930, 0.161000
27.396140, 189.011472, 0.159000
27.396140, 189.409014, 0.182000
27.396140, 189.806556, 0.173000
27.396140, 190.204099, 0.173000
27.396140, 190.601641, 0.178000
25.425080, 179.072915, 0.157000
25.425080, 179.470457, 0.157000
25.425080, 179.868000, 0.180000
25.425080, 180.265542, 0.164000
25.425080, 180.663084, 0.154000
25.425080, 181.060626, 0.150000
25.425080, 181.458169, 0.154000
25.425080, 181.855711, 0.138000
25.425080, 182.253253, 0.145000
25.425080, 182.650795, 0.143000
25.425080, 183.048338, 0.143000
25.425080, 183.445880, 0.148000
25.425080, 183.843422, 0.148000
25.425080, 184.240965, 0.136000
25.425080, 184.638507, 0.148000
25.425080, 185.036049, 0.150000
25.425080, 185.433591, 0.152000
25.425080, 185.831134, 0.143000
25.425080, 186.228676, 0.136000
25.425080, 186.626218, 0.152000
25.425080, 187.023760, 0.175000
25.425080, 187.421303, 0.164000
25.425080, 187.818845, 0.168000
25.425080, 188.216387, 0.173000
25.425080, 188.613930, 0.173000
25.425080, 189.011472, 0.161000
25.425080, 189.409014, 0.187000
25.425080, 189.806556, 0.185000
25.425080, 190.204099, 0.189000
25.425080, 190.601641, 0.168000
23.454020, 179.072915, 0.171000
23.454020, 179.470457, 0.173000
23.454020, 179.868000, 0.178000
23.454020, 180.265542, 0.148000
23.454020, 180.663084, 0.168000
23.454020, 181.060626, 0.166000
23.454020, 181.458169, 0.159000
23.454020, 181.855711, 0.143000
23.454020, 182.253253, 0.134000
23.454020, 182.650795, 0.143000
23.454020, 183.048338, 0.141000
23.454020, 183.445880, 0.154000
23.454020, 183.843422, 0.157000
23.454020, 184.240965, 0.152000
23.454020, 184.638507, 0.152000
23.454020, 185.036049, 0.152000
23.454020, 185.433591, 0.150000
23.454020, 185.831134, 0.145000
23.454020, 186.228676, 0.143000
23.454020, 186.626218, 0.161000
23.454020, 187.023760, 0.154000
23.454020, 187.421303, 0.161000
23.454020, 187.818845, 0.164000
23.454020, 188.216387, 0.159000
23.454020, 188.613930, 0.182000
23.454020, 189.011472, 0.178000
23.454020, 189.409014, 0.152000
23.454020, 189.806556, 0.199000
23.454020, 190.204099, 0.189000
23.454020, 190.601641, 0.192000
21.482980, 179.072915, 0.152000
21.482980, 179.470457, 0.161000
21.482980, 179.868000, 0.178000
21.482980, 180.265542, 0.148000
21.482980, 180.663084, 0.161000
21.482980, 181.060626, 0.168000
21.482980, 181.458169, 0.159000
21.482980, 181.855711, 0.150000
21.482980, 182.253253, 0.143000
21.482980, 182.650795, 0.150000
21.482980, 183.048338, 0.141000
21.482980, 183.445880, 0.150000
21.482980, 183.843422, 0.141000
21.482980, 184.240965, 0.145000
21.482980, 184.638507, 0.171000
21.482980, 185.036049, 0.168000
21.482980, 185.433591, 0.175000
21.482980, 185.831134, 0.168000
21.482980, 186.228676, 0.166000
21.482980, 186.626218, 0.192000
21.482980, 187.023760, 0.194000
21.482980, 187.421303, 0.189000
21.482980, 187.818845, 0.178000
21.482980, 188.216387, 0.185000
21.482980, 188.613930, 0.210000
21.482980, 189.011472, 0.247000
21.482980, 189.409014, 0.240000
21.482980, 189.806556, 0.243000
21.482980, 190.204099, 0.240000
21.482980, 190.601641, 0.240000
19.511920, 179.072915, 0.159000
19.511920, 179.470457, 0.166000
19.511920, 179.868000, 0.171000
19.511920, 180.265542, 0.175000
19.511920, 180.663084, 0.175000
19.511920, 181.060626, 0.171000
19.511920, 181.458169, 0.166000
19.511920, 181.855711, 0.171000
19.511920, 182.253253, 0.150000
19.511920, 182.650795, 0.159000
19.511920, 183.048338, 0.157000
19.511920, 183.445880, 0.166000
19.511920, 183.843422, 0.154000
19.511920, 184.240965, 0.141000
19.511920, 184.638507, 0.180000
19.511920, 185.036049, 0.187000
19.511920, 185.433591, 0.171000
19.511920, 185.831134, 0.171000
19.511920, 186.228676, 0.194000
19.511920, 186.626218, 0.196000
19.511920, 187.023760, 0.222000
19.511920, 187.421303, 0.219000
19.511920, 187.818845, 0.210000
19.511920, 188.216387, 0.219000
19.511920, 188.613930, 0.224000
19.511920, 189.011472, 0.217000
19.511920, 189.409014, 0.217000
19.511920, 189.806556, 0.215000
19.511920, 190.204099, 0.233000
19.511920, 190.601641, 0.247000
17.540860, 179.072915, 0.173000
17.540860, 179.470457, 0.185000
17.540860, 179.868000, 0.157000
17.540860, 180.265542, 0.178000
17.540860, 180.663084, 0.182000
17.540860, 181.060626, 0.182000
17.540860, 181.458169, 0.168000
17.540860, 181.855711, 0.180000
17.540860, 182.253253, 0.182000
17.540860, 182.650795, 0.157000
17.540860, 183.048338, 0.152000
17.540860, 183.445880, 0.159000
17.540860, 183.843422, 0.159000
17.540860, 184.240965, 0.154000
17.540860, 184.638507, 0.159000
17.540860, 185.036049, 0.180000
17.540860, 185.433591, 0.171000
17.540860, 185.831134, 0.178000
17.540860, 186.228676, 0.180000
17.540860, 186.626218, 0.187000
17.540860, 187.023760, 0.196000
17.540860, 187.421303, 0.222000
17.540860, 187.818845, 0.159000
17.540860, 188.216387, 0.224000
17.540860, 188.613930, 0.206000
17.540860, 189.011472, 0.215000
17.540860, 189.409014, 0.208000
17.540860, 189.806556, 0.210000
17.540860, 190.204099, 0.266000
17.540860, 190.601641, 0.168000
15.569800, 179.072915, 0.159000
15.569800, 179.470457, 0.173000
15.569800, 179.868000, 0.154000
15.569800, 180.265542, 0.175000
15.569800, 180.663084, 0.171000
15.569800, 181.060626, 0.175000
15.569800, 181.458169, 0.178000
15.569800, 181.855711, 0.154000
15.569800, 182.253253, 0.154000
15.569800, 182.650795, 0.150000
15.569800, 183.048338, 0.150000
15.569800, 183.445880, 0.145000
15.569800, 183.843422, 0.150000
15.569800, 184.240965, 0.152000
15.569800, 184.638507, 0.180000
15.569800, 185.036049, 0.199000
15.569800, 185.433591, 0.175000
15.569800, 185.831134, 0.173000
15.569800, 186.228676, 0.189000
15.569800, 186.626218, 0.182000
15.569800, 187.023760, 0.194000
15.569800, 187.421303, 0.199000
15.569800, 187.818845, 0.203000
15.569800, 188.216387, 0.194000
15.569800, 188.613930, 0.208000
15.569800, 189.011472, 0.215000
15.569800, 189.409014, 0.212000
15.569800, 189.806556, 0.231000
15.569800, 190.204099, 0.257000
15.569800, 190.601641, 0.250000
13.598720, 179.072915, 0.148000
13.598720, 179.470457, 0.168000
13.598720, 179.868000, 0.187000
13.598720, 180.265542, 0.180000
13.598720, 180.663084, 0.182000
13.598720, 181.060626, 0.180000
13.598720, 181.458169, 0.175000
13.598720, 181.855711, 0.185000
13.598720, 182.253253, 0.150000
13.598720, 182.650795, 0.175000
13.598720, 183.048338, 0.145000
13.598720, 183.445880, 0.143000
13.598720, 183.843422, 0.141000
13.598720, 184.240965, 0.152000
13.598720, 184.638507, 0.145000
13.598720, 185.036049, 0.180000
13.598720, 185.433591, 0.171000
13.598720, 185.831134, 0.168000
13.598720, 186.228676, 0.168000
13.598720, 186.626218, 0.185000
13.598720, 187.023760, 0.182000
13.598720, 187.421303, 0.192000
13.598720, 187.818845, 0.199000
13.598720, 188.216387, 0.206000
13.598720, 188.613930, 0.219000
13.598720, 189.011472, 0.215000
13.598720, 189.409014, 0.215000
13.598720, 189.806556, 0.219000
13.598720, 190.204099, 0.208000
13.598720, 190.601641, 0.229000
11.627660, 179.072915, 0.180000
11.627660, 179.470457, 0.187000
11.627660, 179.868000, 0.194000
11.627660, 180.265542, 0.187000
11.627660, 180.663084, 0.182000
11.627660, 181.060626, 0.182000
11.627660, 181.458169, 0.189000
11.627660, 181.855711, 0.192000
11.627660, 182.253253, 0.182000
11.627660, 182.650795, 0.180000
11.627660, 183.048338, 0.148000
11.627660, 183.445880, 0.152000
11.627660, 183.843422, 0.157000
11.627660, 184.240965, 0.148000
11.627660, 184.638507, 0.157000
11.627660, 185.036049, 0.189000
11.627660, 185.433591, 0.178000
11.627660, 185.831134, 0.180000
11.627660, 186.228676, 0.143000
11.627660, 186.626218, 0.185000
11.627660, 187.023760, 0.185000
11.627660, 187.421303, 0.154000
11.627660, 187.818845, 0.187000
11.627660, 188.216387, 0.194000
11.627660, 188.613930, 0.206000
11.627660, 189.011472, 0.222000
11.627660, 189.409014, 0.212000
11.627660, 189.806556, 0.219000
11.627660, 190.204099, 0.215000
11.627660, 190.601641, 0.224000
9.656600, 179.072915, 0.199000
9.656600, 179.470457, 0.189000
9.656600, 179.868000, 0.206000
9.656600, 180.265542, 0.199000
9.656600, 180.663084, 0.203000
9.656600, 181.060626, 0.166000
9.656600, 181.458169, 0.208000
9.656600, 181.855711, 0.215000
9.656600, 182.253253, 0.194000
9.656600, 182.650795, 0.185000
9.656600, 183.048338, 0.185000
9.656600, 183.445880, 0.185000
9.656600, 183.843422, 0.194000
9.656600, 184.240965, 0.194000
9.656600, 184.638507, 0.164000
9.656600, 185.036049, 0.161000
9.656600, 185.433591, 0.194000
9.656600, 185.831134, 0.192000
9.656600, 186.228676, 0.192000
9.656600, 186.626218, 0.192000
9.656600, 187.023760, 0.192000
9.656600, 187.421303, 0.199000
9.656600, 187.818845, 0.166000
9.656600, 188.216387, 0.210000
9.656600, 188.613930, 0.224000
9.656600, 189.011472, 0.231000
9.656600, 189.409014, 0.224000
9.656600, 189.806556, 0.224000
9.656600, 190.204099, 0.219000
9.656600, 190.601641, 0.233000
7.685560, 179.072915, 0.206000
7.685560, 179.470457, 0.203000
7.685560, 179.868000, 0.208000
7.685560, 180.265542, 0.210000
7.685560, 180.663084, 0.203000
7.685560, 181.060626, 0.203000
7.685560, 181.458169, 0.210000
7.685560, 181.855711, 0.208000
7.685560, 182.253253, 0.199000
7.685560, 182.650795, 0.196000
7.685560, 183.048338, 0.196000
7.685560, 183.445880, 0.203000
7.685560, 183.843422, 0.201000
7.685560, 184.240965, 0.141000
7.685560, 184.638507, 0.199000
7.685560, 185.036049, 0.159000
7.685560, 185.433591, 0.199000
7.685560, 185.831134, 0.194000
7.685560, 186.228676, 0.201000
7.685560, 186.626218, 0.201000
7.685560, 187.023760, 0.206000
7.685560, 187.421303, 0.206000
7.685560, 187.818845, 0.150000
7.685560, 188.216387, 0.219000
7.685560, 188.613930, 0.226000
7.685560, 189.011472, 0.231000
7.685560, 189.409014, 0.229000
7.685560, 189.806556, 0.131000
7.685560, 190.204099, 0.212000
7.685560, 190.601641, 0.215000
5.714500, 179.072915, 0.210000
5.714500, 179.470457, 0.168000
5.714500, 179.868000, 0.215000
5.714500, 180.265542, 0.217000
5.714500, 180.663084, 0.212000
5.714500, 181.060626, 0.208000
5.714500, 181.458169, 0.206000
5.714500, 181.855711, 0.219000
5.714500, 182.253253, 0.212000
5.714500, 182.650795, 0.210000
5.714500, 183.048338, 0.159000
5.714500, 183.445880, 0.201000
5.714500, 183.843422, 0.199000
5.714500, 184.240965, 0.178000
5.714500, 184.638507, 0.145000
5.714500, 185.036049, 0.203000
5.714500, 185.433591, 0.150000
5.714500, 185.831134, 0.208000
5.714500, 186.228676, 0.210000
5.714500, 186.626218, 0.212000
5.714500, 187.023760, 0.215000
5.714500, 187.421303, 0.219000
5.714500, 187.818845, 0.215000
5.714500, 188.216387, 0.222000
5.714500, 188.613930, 0.143000
5.714500, 189.011472, 0.157000
5.714500, 189.409014, 0.233000
5.714500, 189.806556, 0.236000
5.714500, 190.204099, 0.229000
5.714500, 190.601641, 0.138000
3.743440, 179.072915, 0.222000
3.743440, 179.470457, 0.212000
3.743440, 179.868000, 0.150000
3.743440, 180.265542, 0.215000
3.743440, 180.663084, 0.206000
3.743440, 181.060626, 0.161000
3.743440, 181.458169, 0.212000
3.743440, 181.855711, 0.226000
3.743440, 182.253253, 0.136000
3.743440, 182.650795, 0.212000
3.743440, 183.048338, 0.215000
3.743440, 183.445880, 0.212000
3.743440, 183.843422, 0.210000
3.743440, 184.240965, 0.217000
3.743440, 184.638507, 0.161000
3.743440, 185.036049, 0.203000
3.743440, 185.433591, 0.161000
3.743440, 185.831134, 0.166000
3.743440, 186.228676, 0.217000
3.743440, 186.626218, 0.210000
3.743440, 187.023760, 0.210000
3.743440, 187.421303, 0.222000
3.743440, 187.818845, 0.219000
3.743440, 188.216387, 0.229000
3.743440, 188.613930, 0.238000
3.743440, 189.011472, 0.157000
3.743440, 189.409014, 0.247000
3.743440, 189.806556, 0.138000
3.743440, 190.204099, 0.252000
3.743440, 190.601641, 0.157000
1.772400, 179.072915, 0.175000
1.772400, 179.470457, 0.148000
1.772400, 179.868000, 0.145000
1.772400, 180.265542, 0.203000
1.772400, 180.663084, 0.159000
1.772400, 181.060626, 0.208000
1.772400, 181.458169, 0.161000
1.772400, 181.855711, 0.219000
1.772400, 182.253253, 0.136000
1.772400, 182.650795, 0.141000
1.772400, 183.048338, 0.219000
1.772400, 183.445880, 0.215000
1.772400, 183.843422, 0.212000
1.772400, 184.240965, 0.217000
1.772400, 184.638507, 0.157000
1.772400, 185.036049, 0.154000
1.772400, 185.433591, 0.143000
1.772400, 185.831134, 0.212000
1.772400, 186.228676, 0.134000
1.772400, 186.626218, 0.161000
1.772400, 187.023760, 0.189000
1.772400, 187.421303, 0.224000
1.772400, 187.818845, 0.222000
1.772400, 188.216387, 0.157000
1.772400, 188.613930, 0.243000
1.772400, 189.011472, 0.254000
1.772400, 189.409014, 0.257000
1.772400, 189.806556, 0.257000
1.772400, 190.204099, 0.131000
1.772400, 190.601641, 0.159000
47.106720, 179.072915, 0.157000
47.106720, 179.470457, 0.157000
47.106720, 179.868000, 0.154000
47.106720, 180.265542, 0.145000
47.106720, 180.663084, 0.143000
47.106720, 181.060626, 0.141000
47.106720, 181.458169, 0.152000
47.106720, 181.855711, 0.148000
47.106720, 182.253253, 0.143000
47.106720, 182.650795, 0.141000
47.106720, 183.048338, 0.141000
47.106720, 183.445880, 0.143000
47.106720, 183.843422, 0.145000
47.106720, 184.240965, 0.141000
47.106720, 184.638507, 0.141000
47.106720, 185.036049, 0.141000
47.106720, 185.433591, 0.145000
47.106720, 185.831134, 0.148000
47.106720, 186.228676, 0.145000
47.106720, 186.626218, 0.143000
47.106720, 187.023760, 0.143000
47.106720, 187.421303, 0.166000
47.106720, 187.818845, 0.261000
47.106720, 188.216387, 0.259000
47.106720, 188.613930, 0.150000
47.106720, 189.011472, 0.233000
47.106720, 189.409014, 0.187000
47.106720, 189.806556, 0.185000
47.106720, 190.204099, 0.180000
47.106720, 190.601641, 0.263000
45.135660, 179.072915, 0.148000
45.135660, 179.470457, 0.152000
45.135660, 179.868000, 0.154000
45.135660, 180.265542, 0.141000
45.135660, 180.663084, 0.141000
45.135660, 181.060626, 0.141000
45.135660, 181.458169, 0.159000
45.135660, 181.855711, 0.152000
45.135660, 182.253253, 0.157000
45.135660, 182.650795, 0.141000
45.135660, 183.048338, 0.141000
45.135660, 183.445880, 0.143000
45.135660, 183.843422, 0.141000
45.135660, 184.240965, 0.141000
45.135660, 184.638507, 0.143000
45.135660, 185.036049, 0.148000
45.135660, 185.433591, 0.141000
45.135660, 185.831134, 0.145000
45.135660, 186.228676, 0.143000
45.135660, 186.626218, 0.141000
45.135660, 187.023760, 0.145000
45.135660, 187.421303, 0.152000
45.135660, 187.818845, 0.150000
45.135660, 188.216387, 0.168000
45.135660, 188.613930, 0.141000
45.135660, 189.011472, 0.152000
45.135660, 189.409014, 0.148000
45.135660, 189.806556, 0.254000
45.135660, 190.204099, 0.154000
45.135660, 190.601641, 0.266000
43.164600, 179.072915, 0.145000
43.164600, 179.470457, 0.150000
43.164600, 179.868000, 0.145000
43.164600, 180.265542, 0.143000
43.164600, 180.663084, 0.148000
43.164600, 181.060626, 0.148000
43.164600, 181.458169, 0.143000
43.164600, 181.855711, 0.152000
43.164600, 182.253253, 0.145000
43.164600, 182.650795, 0.145000
43.164600, 183.048338, 0.141000
43.164600, 183.445880, 0.141000
43.164600, 183.843422, 0.145000
43.164600, 184.240965, 0.145000
43.164600, 184.638507, 0.148000
43.164600, 185.036049, 0.148000
43.164600, 185.433591, 0.141000
43.164600, 185.831134, 0.143000
43.164600, 186.228676, 0.148000
43.164600, 186.626218, 0.143000
43.164600, 187.023760, 0.154000
43.164600, 187.421303, 0.145000
43.164600, 187.818845, 0.157000
43.164600, 188.216387, 0.273000
43.164600, 188.613930, 0.161000
43.164600, 189.011472, 0.270000
43.164600, 189.409014, 0.157000
43.164600, 189.806556, 0.166000
43.164600, 190.204099, 0.159000
43.164600, 190.601641, 0.266000
41.193560, 179.072915, 0.152000
41.193560, 179.470457, 0.143000
41.193560, 179.868000, 0.150000
41.193560, 180.265542, 0.143000
41.193560, 180.663084, 0.145000
41.193560, 181.060626, 0.145000
41.193560, 181.458169, 0.154000
41.193560, 181.855711, 0.154000
41.193560, 182.253253, 0.152000
41.193560, 182.650795, 0.148000
41.193560, 183.048338, 0.145000
41.193560, 183.445880, 0.143000
41.193560, 183.843422, 0.143000
41.193560, 184.240965, 0.141000
41.193560, 184.638507, 0.148000
41.193560, 185.036049, 0.148000
41.193560, 185.433591, 0.148000
41.193560, 185.831134, 0.148000
41.193560, 186.228676, 0.141000
41.193560, 186.626218, 0.141000
41.193560, 187.023760, 0.161000
41.193560, 187.421303, 0.270000
41.193560, 187.818845, 0.148000
41.193560, 188.216387, 0.141000
41.193560, 188.613930, 0.171000
41.193560, 189.011472, 0.157000
41.193560, 189.409014, 0.150000
41.193560, 189.806556, 0.261000
41.193560, 190.204099, 0.141000
41.193560, 190.601641, 0.159000
39.222480, 179.072915, 0.148000
39.222480, 179.470457, 0.145000
39.222480, 179.868000, 0.143000
39.222480, 180.265542, 0.154000
39.222480, 180.663084, 0.148000
39.222480, 181.060626, 0.143000
39.222480, 181.458169, 0.148000
39.222480, 181.855711, 0.145000
39.222480, 182.253253, 0.148000
39.222480, 182.650795, 0.150000
39.222480, 183.048338, 0.148000
39.222480, 183.445880, 0.145000
39.222480, 183.843422, 0.143000
39.222480, 184.240965, 0.145000
39.222480, 184.638507, 0.152000
39.222480, 185.036049, 0.157000
39.222480, 185.433591, 0.143000
39.222480, 185.831134, 0.154000
39.222480, 186.228676, 0.157000
39.222480, 186.626218, 0.145000
39.222480, 187.023760, 0.161000
39.222480, 187.421303, 0.148000
39.222480, 187.818845, 0.154000
39.222480, 188.216387, 0.148000
39.222480, 188.613930, 0.157000
39.222480, 189.011472, 0.166000
39.222480, 189.409014, 0.268000
39.222480, 189.806556, 0.161000
39.222480, 190.204099, 0.145000
39.222480, 190.601641, 0.263000
37.251400, 179.072915, 0.152000
37.251400, 179.470457, 0.143000
37.251400, 179.868000, 0.150000
37.251400, 180.265542, 0.143000
37.251400, 180.663084, 0.150000
37.251400, 181.060626, 0.148000
37.251400, 181.458169, 0.152000
37.251400, 181.855711, 0.152000
37.251400, 182.253253, 0.154000
37.251400, 182.650795, 0.150000
37.251400, 183.048338, 0.148000
37.251400, 183.445880, 0.143000
37.251400, 183.843422, 0.141000
37.251400, 184.240965, 0.150000
37.251400, 184.638507, 0.154000
37.251400, 185.036049, 0.148000
37.251400, 185.433591, 0.150000
37.251400, 185.831134, 0.168000
37.251400, 186.228676, 0.161000
37.251400, 186.626218, 0.159000
37.251400, 187.023760, 0.166000
37.251400, 187.421303, 0.152000
37.251400, 187.818845, 0.161000
37.251400, 188.216387, 0.270000
37.251400, 188.613930, 0.275000
37.251400, 189.011472, 0.273000
37.251400, 189.409014, 0.263000
37.251400, 189.806556, 0.266000
37.251400, 190.204099, 0.217000
37.251400, 190.601641, 0.257000
35.280340, 179.072915, 0.159000
35.280340, 179.470457, 0.171000
35.280340, 179.868000, 0.148000
35.280340, 180.265542, 0.145000
35.280340, 180.663084, 0.154000
35.280340, 181.060626, 0.150000
35.280340, 181.458169, 0.150000
35.280340, 181.855711, 0.166000
35.280340, 182.253253, 0.173000
35.280340, 182.650795, 0.161000
35.280340, 183.048338, 0.148000
35.280340, 183.445880, 0.157000
35.280340, 183.843422, 0.145000
35.280340, 184.240965, 0.157000
35.280340, 184.638507, 0.161000
35.280340, 185.036049, 0.148000
35.280340, 185.433591, 0.152000
33.309280, 179.072915, 0.175000
33.309280, 179.470457, 0.173000
33.309280, 179.868000, 0.152000
33.309280, 180.265542, 0.152000
33.309280, 180.663084, 0.152000
33.309280, 181.060626, 0.145000
33.309280, 181.458169, 0.164000
33.309280, 181.855711, 0.161000
33.309280, 182.253253, 0.143000
33.309280, 182.650795, 0.150000
33.309280, 183.048338, 0.150000
33.309280, 183.445880, 0.150000
33.309280, 183.843422, 0.150000
33.309280, 184.240965, 0.152000
33.309280, 184.638507, 0.152000
33.309280, 185.036049, 0.145000
33.309280, 185.433591, 0.161000
33.309280, 185.831134, 0.148000
33.309280, 186.228676, 0.173000
33.309280, 186.626218, 0.150000
33.309280, 187.023760, 0.148000
33.309280, 187.421303, 0.154000
33.309280, 187.818845, 0.141000
33.309280, 188.216387, 0.275000
33.309280, 188.613930, 0.268000
33.309280, 189.011472, 0.157000
33.309280, 189.409014, 0.270000
33.309280, 189.806556, 0.273000
33.309280, 190.204099, 0.180000
33.309280, 190.601641, 0.203000
31.338240, 179.072915, 0.166000
31.338240, 179.470457, 0.164000
31.338240, 179.868000, 0.148000
31.338240, 180.265542, 0.152000
31.338240, 180.663084, 0.154000
31.338240, 181.060626, 0.154000
31.338240, 181.458169, 0.154000
31.338240, 181.855711, 0.168000
31.338240, 182.253253, 0.161000
31.338240, 182.650795, 0.150000
31.338240, 183.048338, 0.148000
31.338240, 183.445880, 0.150000
31.338240, 183.843422, 0.150000
31.338240, 184.240965, 0.143000
31.338240, 184.638507, 0.150000
31.338240, 185.036049, 0.150000
31.338240, 185.433591, 0.141000
31.338240, 185.831134, 0.145000
31.338240, 186.228676, 0.148000
31.338240, 186.626218, 0.152000
31.338240, 187.023760, 0.152000
31.338240, 187.421303, 0.157000
31.338240, 187.818845, 0.152000
31.338240, 188.216387, 0.145000
31.338240, 188.613930, 0.141000
31.338240, 189.011472, 0.154000
31.338240, 189.409014, 0.159000
31.338240, 189.806556, 0.270000
31.338240, 190.204099, 0.215000
31.338240, 190.601641, 0.261000
29.367180, 179.072915, 0.171000
29.367180, 179.470457, 0.171000
29.367180, 179.868000, 0.150000
29.367180, 180.265542, 0.159000
29.367180, 180.663084, 0.159000
29.367180, 181.060626, 0.148000
29.367180, 181.458169, 0.150000
29.367180, 181.855711, 0.154000
29.367180, 182.253253, 0.178000
29.367180, 182.650795, 0.173000
29.367180, 183.048338, 0.148000
29.367180, 183.445880, 0.154000
29.367180, 183.843422, 0.161000
29.367180, 184.240965, 0.166000
29.367180, 184.638507, 0.150000
29.367180, 185.036049, 0.152000
29.367180, 185.433591, 0.143000
29.367180, 185.831134, 0.143000
29.367180, 186.228676, 0.150000
29.367180, 186.626218, 0.145000
29.367180, 187.023760, 0.150000
29.367180, 187.421303, 0.159000
29.367180, 187.818845, 0.194000
29.367180, 188.216387, 0.152000
29.367180, 188.613930, 0.152000
29.367180, 189.011472, 0.154000
29.367180, 189.409014, 0.143000
29.367180, 189.806556, 0.157000
29.367180, 190.204099, 0.159000
29.367180, 190.601641, 0.182000
27.396140, 179.072915, 0.159000
27.396140, 179.470457, 0.168000
27.396140, 179.868000, 0.159000
27.396140, 180.265542, 0.154000
27.396140, 180.663084, 0.164000
27.396140, 181.060626, 0.166000
27.396140, 181.458169, 0.152000
27.396140, 181.855711, 0.150000
27.396140, 182.253253, 0.171000
27.396140, 182.650795, 0.159000
27.396140, 183.048338, 0.157000
27.396140, 183.445880, 0.152000
27.396140, 183.843422, 0.154000
27.396140, 184.240965, 0.141000
27.396140, 184.638507, 0.152000
27.396140, 185.036049, 0.150000
27.396140, 185.433591, 0.143000
27.396140, 185.831134, 0.141000
27.396140, 186.228676, 0.145000
27.396140, 186.626218, 0.148000
27.396140, 187.023760, 0.152000
27.396140, 187.421303, 0.152000
27.396140, 187.818845, 0.148000
27.396140, 188.216387, 0.148000
27.396140, 188.613930, 0.150000
27.396140, 189.011472, 0.148000
27.396140, 189.409014, 0.168000
27.396140, 189.806556, 0.154000
27.396140, 190.204099, 0.152000
27.396140, 190.601641, 0.150000
25.425080, 179.072915, 0.192000
25.425080, 179.470457, 0.189000
25.425080, 179.868000, 0.185000
25.425080, 180.265542, 0.157000
25.425080, 180.663084, 0.168000
25.425080, 181.060626, 0.175000
25.425080, 181.458169, 0.148000
25.425080, 181.855711, 0.159000
25.425080, 182.253253, 0.166000
25.425080, 182.650795, 0.157000
25.425080, 183.048338, 0.161000
25.425080, 183.445880, 0.157000
25.425080, 183.843422, 0.152000
25.425080, 184.240965, 0.152000
25.425080, 184.638507, 0.157000
25.425080, 185.036049, 0.145000
25.425080, 185.433591, 0.168000
25.425080, 185.831134, 0.171000
25.425080, 186.228676, 0.152000
25.425080, 186.626218, 0.143000
25.425080, 187.023760, 0.157000
25.425080, 187.421303, 0.201000
25.425080, 187.818845, 0.152000
25.425080, 188.216387, 0.268000
25.425080, 188.613930, 0.150000
25.425080, 189.011472, 0.145000
25.425080, 189.409014, 0.150000
25.425080, 189.806556, 0.157000
25.425080, 190.204099, 0.157000
25.425080, 190.601641, 0.141000
23.454020, 179.072915, 0.157000
23.454020, 179.470457, 0.194000
23.454020, 179.868000, 0.189000
23.454020, 180.265542, 0.168000
23.454020, 180.663084, 0.187000
23.454020, 181.060626, 0.192000
23.454020, 181.458169, 0.175000
23.454020, 181.855711, 0.178000
23.454020, 182.253253, 0.180000
23.454020, 182.650795, 0.192000
23.454020, 183.048338, 0.175000
23.454020, 183.445880, 0.164000
23.454020, 183.843422, 0.154000
23.454020, 184.240965, 0.157000
23.454020, 184.638507, 0.145000
23.454020, 185.036049, 0.152000
23.454020, 185.433591, 0.180000
23.454020, 185.831134, 0.148000
23.454020, 186.228676, 0.154000
23.454020, 186.626218, 0.150000
23.454020, 187.023760, 0.201000
23.454020, 187.421303, 0.148000
23.454020, 187.818845, 0.233000
23.454020, 188.216387, 0.259000
23.454020, 188.613930, 0.161000
23.454020, 189.011472, 0.175000
23.454020, 189.409014, 0.143000
23.454020, 189.806556, 0.148000
23.454020, 190.204099, 0.166000
23.454020, 190.601641, 0.148000
21.482980, 179.072915, 0.238000
21.482980, 179.470457, 0.210000
21.482980, 179.868000, 0.159000
21.482980, 180.265542, 0.208000
21.482980, 180.663084, 0.215000
21.482980, 181.060626, 0.240000
21.482980, 181.458169, 0.215000
21.482980, 181.855711, 0.194000
21.482980, 182.253253, 0.203000
21.482980, 182.650795, 0.196000
21.482980, 183.048338, 0.182000
21.482980, 183.445880, 0.168000
21.482980, 183.843422, 0.187000
21.482980, 184.240965, 0.152000
21.482980, 184.638507, 0.148000
21.482980, 185.036049, 0.159000
21.482980, 185.433591, 0.152000
21.482980, 185.831134, 0.152000
21.482980, 186.228676, 0.154000
21.482980, 186.626218, 0.157000
21.482980, 187.023760, 0.161000
21.482980, 187.421303, 0.203000
21.482980, 187.818845, 0.231000
21.482980, 188.216387, 0.268000
21.482980, 188.613930, 0.145000
21.482980, 189.011472, 0.175000
21.482980, 189.409014, 0.159000
21.482980, 189.806556, 0.148000
21.482980, 190.204099, 0.148000
21.482980, 190.601641, 0.150000
19.511920, 179.072915, 0.217000
19.511920, 179.470457, 0.157000
19.511920, 179.868000, 0.152000
19.511920, 180.265542, 0.148000
19.511920, 180.663084, 0.226000
19.511920, 181.060626, 0.261000
19.511920, 181.458169, 0.250000
19.511920, 181.855711, 0.199000
19.511920, 182.253253, 0.201000
19.511920, 182.650795, 0.161000
19.511920, 183.048338, 0.161000
19.511920, 183.445880, 0.161000
19.511920, 183.843422, 0.192000
19.511920, 184.240965, 0.152000
19.511920, 184.638507, 0.145000
19.511920, 185.036049, 0.150000
19.511920, 185.433591, 0.161000
19.511920, 185.831134, 0.148000
19.511920, 186.228676, 0.210000
19.511920, 186.626218, 0.148000
19.511920, 187.023760, 0.168000
19.511920, 187.421303, 0.150000
19.511920, 187.818845, 0.229000
19.511920, 188.216387, 0.270000
19.511920, 188.613930, 0.152000
19.511920, 189.011472, 0.145000
19.511920, 189.409014, 0.145000
19.511920, 189.806556, 0.143000
19.511920, 190.204099, 0.150000
19.511920, 190.601641, 0.161000
17.540860, 179.072915, 0.154000
17.540860, 179.470457, 0.159000
17.540860, 179.868000, 0.168000
17.540860, 180.265542, 0.154000
17.540860, 180.663084, 0.164000
17.540860, 181.060626, 0.266000
17.540860, 181.458169, 0.257000
17.540860, 181.855711, 0.201000
17.540860, 182.253253, 0.187000
17.540860, 182.650795, 0.187000
17.540860, 183.048338, 0.173000
17.540860, 183.445880, 0.185000
17.540860, 183.843422, 0.192000
17.540860, 184.240965, 0.161000
17.540860, 184.638507, 0.192000
17.540860, 185.036049, 0.148000
17.540860, 185.433591, 0.208000
17.540860, 185.831134, 0.210000
17.540860, 186.228676, 0.212000
17.540860, 186.626218, 0.161000
17.540860, 187.023760, 0.152000
17.540860, 187.421303, 0.210000
17.540860, 187.818845, 0.219000
17.540860, 188.216387, 0.273000
17.540860, 188.613930, 0.152000
17.540860, 189.011472, 0.143000
17.540860, 189.409014, 0.154000
17.540860, 189.806556, 0.164000
17.540860, 190.204099, 0.145000
17.540860, 190.601641, 0.143000
15.569800, 179.072915, 0.148000
15.569800, 179.470457, 0.224000
15.569800, 179.868000, 0.154000
15.569800, 180.265542, 0.268000
15.569800, 180.663084, 0.250000
15.569800, 181.060626, 0.245000
15.569800, 181.458169, 0.217000
15.569800, 181.855711, 0.203000
15.569800, 182.253253, 0.201000
15.569800, 182.650795, 0.203000
15.569800, 183.048338, 0.154000
15.569800, 183.445880, 0.187000
15.569800, 183.843422, 0.187000
15.569800, 184.240965, 0.201000
15.569800, 184.638507, 0.189000
15.569800, 185.036049, 0.199000
15.569800, 185.433591, 0.201000
15.569800, 185.831134, 0.159000
15.569800, 186.228676, 0.154000
15.569800, 186.626218, 0.148000
15.569800, 187.023760, 0.148000
15.569800, 187.421303, 0.152000
15.569800, 187.818845, 0.215000
15.569800, 188.216387, 0.273000
15.569800, 188.613930, 0.270000
15.569800, 189.011472, 0.164000
15.569800, 189.409014, 0.166000
15.569800, 189.806556, 0.273000
15.569800, 190.204099, 0.164000
15.569800, 190.601641, 0.145000
13.598720, 179.072915, 0.224000
13.598720, 179.470457, 0.215000
13.598720, 179.868000, 0.150000
13.598720, 180.265542, 0.217000
13.598720, 180.663084, 0.219000
13.598720, 181.060626, 0.215000
13.598720, 181.458169, 0.157000
13.598720, 181.855711, 0.206000
13.598720, 182.253253, 0.206000
13.598720, 182.650795, 0.203000
13.598720, 183.048338, 0.203000
13.598720, 183.445880, 0.192000
13.598720, 183.843422, 0.192000
13.598720, 184.240965, 0.159000
13.598720, 184.638507, 0.210000
13.598720, 185.036049, 0.206000
13.598720, 185.433591, 0.217000
13.598720, 185.831134, 0.210000
13.598720, 186.228676, 0.217000
13.598720, 186.626218, 0.143000
13.598720, 187.023760, 0.150000
13.598720, 187.421303, 0.152000
13.598720, 187.818845, 0.236000
13.598720, 188.216387, 0.270000
13.598720, 188.613930, 0.270000
13.598720, 189.011472, 0.159000
13.598720, 189.409014, 0.159000
13.598720, 189.806556, 0.268000
13.598720, 190.204099, 0.266000
13.598720, 190.601641, 0.270000
11.627660, 179.072915, 0.229000
11.627660, 179.470457, 0.226000
11.627660, 179.868000, 0.224000
11.627660, 180.265542, 0.154000
11.627660, 180.663084, 0.161000
11.627660, 181.060626, 0.212000
11.627660, 181.458169, 0.157000
11.627660, 181.855711, 0.206000
11.627660, 182.253253, 0.210000
11.627660, 182.650795, 0.203000
11.627660, 183.048338, 0.212000
11.627660, 183.445880, 0.206000
11.627660, 183.843422, 0.201000
11.627660, 184.240965, 0.159000
11.627660, 184.638507, 0.212000
11.627660, 185.036049, 0.199000
11.627660, 185.433591, 0.159000
11.627660, 185.831134, 0.215000
11.627660, 186.228676, 0.210000
11.627660, 186.626218, 0.161000
11.627660, 187.023760, 0.157000
11.627660, 187.421303, 0.164000
11.627660, 187.818845, 0.240000
11.627660, 188.216387, 0.273000
11.627660, 188.613930, 0.273000
11.627660, 189.011472, 0.164000
11.627660, 189.409014, 0.154000
11.627660, 189.806556, 0.150000
11.627660, 190.204099, 0.161000
11.627660, 190.601641, 0.270000
9.656600, 179.072915, 0.154000
9.656600, 179.470457, 0.233000
9.656600, 179.868000, 0.229000
9.656600, 180.265542, 0.152000
9.656600, 180.663084, 0.212000
9.656600, 181.060626, 0.212000
9.656600, 181.458169, 0.159000
9.656600, 181.855711, 0.219000
9.656600, 182.253253, 0.219000
9.656600, 182.650795, 0.212000
9.656600, 183.048338, 0.154000
9.656600, 183.445880, 0.152000
9.656600, 183.843422, 0.152000
9.656600, 184.240965, 0.152000
9.656600, 184.638507, 0.152000
9.656600, 185.036049, 0.157000
9.656600, 185.433591, 0.208000
9.656600, 185.831134, 0.208000
9.656600, 186.228676, 0.141000
9.656600, 186.626218, 0.152000
9.656600, 187.023760, 0.141000
9.656600, 187.421303, 0.161000
9.656600, 187.818845, 0.157000
9.656600, 188.216387, 0.275000
9.656600, 188.613930, 0.270000
9.656600, 189.011472, 0.164000
9.656600, 189.409014, 0.173000
9.656600, 189.806556, 0.263000
9.656600, 190.204099, 0.143000
9.656600, 190.601641, 0.159000
7.685560, 179.072915, 0.233000
7.685560, 179.470457, 0.238000
7.685560, 179.868000, 0.150000
7.685560, 180.265542, 0.152000
7.685560, 180.663084, 0.157000
7.685560, 181.060626, 0.219000
7.685560, 181.458169, 0.150000
7.685560, 181.855711, 0.219000
7.685560, 182.253253, 0.222000
7.685560, 182.650795, 0.231000
7.685560, 183.048338, 0.226000
7.685560, 183.445880, 0.217000
7.685560, 183.843422, 0.210000
7.685560, 184.240965, 0.219000
7.685560, 184.638507, 0.222000
7.685560, 185.036049, 0.224000
7.685560, 185.433591, 0.233000
7.685560, 185.831134, 0.222000
7.685560, 186.228676, 0.175000
7.685560, 186.626218, 0.143000
7.685560, 187.023760, 0.145000
7.685560, 187.421303, 0.152000
7.685560, 187.818845, 0.229000
7.685560, 188.216387, 0.266000
7.685560, 188.613930, 0.159000
7.685560, 189.011472, 0.157000
7.685560, 189.409014, 0.148000
7.685560, 189.806556, 0.270000
7.685560, 190.204099, 0.270000
7.685560, 190.601641, 0.157000
5.714500, 179.072915, 0.238000
5.714500, 179.470457, 0.236000
5.714500, 179.868000, 0.154000
5.714500, 180.265542, 0.152000
5.714500, 180.663084, 0.217000
5.714500, 181.060626, 0.224000
5.714500, 181.458169, 0.224000
5.714500, 181.855711, 0.164000
5.714500, 182.253253, 0.229000
5.714500, 182.650795, 0.233000
5.714500, 183.048338, 0.231000
5.714500, 183.445880, 0.215000
5.714500, 183.843422, 0.222000
5.714500, 184.240965, 0.152000
5.714500, 184.638507, 0.231000
5.714500, 185.036049, 0.233000
5.714500, 185.433591, 0.229000
5.714500, 185.831134, 0.217000
5.714500, 186.228676, 0.154000
5.714500, 186.626218, 0.154000
5.714500, 187.023760, 0.150000
5.714500, 187.421303, 0.154000
5.714500, 187.818845, 0.150000
5.714500, 188.216387, 0.275000
5.714500, 188.613930, 0.270000
5.714500, 189.011472, 0.157000
5.714500, 189.409014, 0.152000
5.714500, 189.806556, 0.173000
5.714500, 190.204099, 0.270000
5.714500, 190.601641, 0.268000
3.743440, 179.072915, 0.145000
3.743440, 179.470457, 0.175000
3.743440, 179.868000, 0.236000
3.743440, 180.265542, 0.154000
3.743440, 180.663084, 0.217000
3.743440, 181.060626, 0.219000
3.743440, 181.458169, 0.219000
3.743440, 181.855711, 0.231000
3.743440, 182.253253, 0.229000
3.743440, 182.650795, 0.233000
3.743440, 183.048338, 0.233000
3.743440, 183.445880, 0.224000
3.743440, 183.843422, 0.159000
3.743440, 184.240965, 0.157000
3.743440, 184.638507, 0.152000
3.743440, 185.036049, 0.233000
3.743440, 185.433591, 0.226000
3.743440, 185.831134, 0.148000
3.743440, 186.228676, 0.212000
3.743440, 186.626218, 0.143000
3.743440, 187.023760, 0.143000
3.743440, 187.421303, 0.161000
3.743440, 187.818845, 0.254000
3.743440, 188.216387, 0.275000
3.743440, 188.613930, 0.275000
3.743440, 189.011472, 0.168000
3.743440, 189.409014, 0.150000
3.743440, 189.806556, 0.266000
3.743440, 190.204099, 0.263000
3.743440, 190.601641, 0.270000
1.772400, 179.072915, 0.150000
1.772400, 179.470457, 0.240000
1.772400, 179.868000, 0.150000
1.772400, 180.265542, 0.236000
1.772400, 180.663084, 0.231000
1.772400, 181.060626, 0.152000
1.772400, 181.458169, 0.150000
1.772400, 181.855711, 0.233000
1.772400, 182.253253, 0.233000
1.772400, 182.650795, 0.252000
1.772400, 183.048338, 0.254000
1.772400, 183.445880, 0.229000
1.772400, 183.843422, 0.233000
1.772400, 184.240965, 0.233000
1.772400, 184.638507, 0.236000
1.772400, 185.036049, 0.243000
1.772400, 185.433591, 0.238000
1.772400, 185.831134, 0.233000
1.772400, 186.228676, 0.145000
1.772400, 186.626218, 0.154000
1.772400, 187.023760, 0.152000
1.772400, 187.421303, 0.168000
1.772400, 187.818845, 0.145000
1.772400, 188.216387, 0.270000
1.772400, 188.613930, 0.270000
1.772400, 189.011472, 0.187000
1.772400, 189.409014, 0.157000
1.772400, 189.806556, 0.148000
1.772400, 190.204099, 0.141000
1.772400, 190.601641, 0.145000
47.106720, 202.925451, 0.250000
47.106720, 203.322993, 0.226000
47.106720, 203.720536, 0.175000
47.106720, 204.118078, 0.259000
47.106720, 204.515620, 0.257000
47.106720, 204.913163, 0.182000
47.106720, 205.310705, 0.217000
47.106720, 205.708247, 0.247000
47.106720, 206.105789, 0.252000
47.106720, 206.503332, 0.215000
47.106720, 206.900874, 0.254000
47.106720, 207.298416, 0.257000
47.106720, 207.695958, 0.240000
47.106720, 208.093501, 0.257000
47.106720, 208.491043, 0.252000
47.106720, 208.888585, 0.240000
47.106720, 209.286127, 0.168000
47.106720, 209.683670, 0.254000
47.106720, 210.081212, 0.252000
47.106720, 210.478754, 0.171000
47.106720, 210.876297, 0.233000
47.106720, 211.273839, 0.252000
47.106720, 211.671381, 0.254000
47.106720, 212.068923, 0.247000
47.106720, 212.466466, 0.243000
47.106720, 212.864008, 0.233000
47.106720, 213.261550, 0.247000
47.106720, 213.659092, 0.243000
47.106720, 214.056635, 0.252000
47.106720, 214.454177, 0.250000
45.135660, 202.925451, 0.263000
45.135660, 203.322993, 0.263000
45.135660, 203.720536, 0.259000
45.135660, 204.118078, 0.266000
45.135660, 204.515620, 0.263000
45.135660, 204.913163, 0.192000
45.135660, 205.310705, 0.224000
45.135660, 205.708247, 0.250000
45.135660, 206.105789, 0.247000
45.135660, 206.503332, 0.247000
45.135660, 206.900874, 0.206000
45.135660, 207.298416, 0.259000
45.135660, 207.695958, 0.259000
45.135660, 208.093501, 0.252000
45.135660, 208.491043, 0.254000
45.135660, 208.888585, 0.257000
45.135660, 209.286127, 0.259000
45.135660, 209.683670, 0.257000
45.135660, 210.081212, 0.257000
45.135660, 210.478754, 0.257000
45.135660, 210.876297, 0.243000
45.135660, 211.273839, 0.243000
45.135660, 211.671381, 0.250000
45.135660, 212.068923, 0.247000
45.135660, 212.466466, 0.250000
45.135660, 212.864008, 0.240000
45.135660, 213.261550, 0.254000
45.135660, 213.659092, 0.254000
45.135660, 214.056635, 0.257000
45.135660, 214.454177, 0.250000
43.164600, 202.925451, 0.210000
43.164600, 203.322993, 0.231000
43.164600, 203.720536, 0.208000
43.164600, 204.118078, 0.236000
43.164600, 204.515620, 0.173000
43.164600, 204.913163, 0.168000
43.164600, 205.310705, 0.212000
43.164600, 205.708247, 0.185000
43.164600, 206.105789, 0.212000
43.164600, 206.503332, 0.206000
43.164600, 206.900874, 0.194000
43.164600, 207.298416, 0.208000
43.164600, 207.695958, 0.254000
43.164600, 208.093501, 0.257000
43.164600, 208.491043, 0.259000
43.164600, 208.888585, 0.261000
43.164600, 209.286127, 0.259000
43.164600, 209.683670, 0.259000
43.164600, 210.081212, 0.254000
43.164600, 210.478754, 0.259000
43.164600, 210.876297, 0.240000
43.164600, 211.273839, 0.252000
43.164600, 211.671381, 0.252000
43.164600, 212.068923, 0.250000
43.164600, 212.466466, 0.247000
43.164600, 212.864008, 0.252000
43.164600, 213.261550, 0.240000
43.164600, 213.659092, 0.257000
43.164600, 214.056635, 0.250000
43.164600, 214.454177, 0.257000
41.193560, 202.925451, 0.210000
41.193560, 203.322993, 0.201000
41.193560, 203.720536, 0.206000
41.193560, 204.118078, 0.168000
41.193560, 204.515620, 0.182000
41.193560, 204.913163, 0.173000
41.193560, 205.310705, 0.217000
41.193560, 205.708247, 0.196000
41.193560, 206.105789, 0.206000
41.193560, 206.503332, 0.206000
41.193560, 206.900874, 0.194000
41.193560, 207.298416, 0.194000
41.193560, 207.695958, 0.203000
41.193560, 208.093501, 0.259000
41.193560, 208.491043, 0.261000
41.193560, 208.888585, 0.257000
41.193560, 209.286127, 0.257000
41.193560, 209.683670, 0.259000
41.193560, 210.081212, 0.261000
41.193560, 210.478754, 0.259000
41.193560, 210.876297, 0.259000
41.193560, 211.273839, 0.261000
41.193560, 211.671381, 0.259000
41.193560, 212.068923, 0.259000
41.193560, 212.466466, 0.259000
41.193560, 212.864008, 0.254000
41.193560, 213.261550, 0.257000
41.193560, 213.659092, 0.257000
41.193560, 214.056635, 0.236000
41.193560, 214.454177, 0.259000
39.222480, 202.925451, 0.222000
39.222480, 203.322993, 0.175000
39.222480, 203.720536, 0.199000
39.222480, 204.118078, 0.175000
39.222480, 204.515620, 0.187000
39.222480, 204.913163, 0.171000
39.222480, 205.310705, 0.175000
39.222480, 205.708247, 0.168000
39.222480, 206.105789, 0.187000
39.222480, 206.503332, 0.168000
39.222480, 206.900874, 0.203000
39.222480, 207.298416, 0.173000
39.222480, 207.695958, 0.208000
39.222480, 208.093501, 0.259000
39.222480, 208.491043, 0.261000
39.222480, 208.888585, 0.261000
39.222480, 209.286127, 0.259000
39.222480, 209.683670, 0.259000
39.222480, 210.081212, 0.261000
39.222480, 210.478754, 0.259000
39.222480, 210.876297, 0.259000
39.222480, 211.273839, 0.259000
39.222480, 211.671381, 0.257000
39.222480, 212.068923, 0.257000
39.222480, 212.466466, 0.254000
39.222480, 212.864008, 0.259000
39.222480, 213.261550, 0.259000
39.222480, 213.659092, 0.250000
39.222480, 214.056635, 0.254000
39.222480, 214.454177, 0.252000
37.251400, 202.925451, 0.201000
37.251400, 203.322993, 0.203000
37.251400, 203.720536, 0.206000
37.251400, 204.118078, 0.187000
37.251400, 204.515620, 0.173000
37.251400, 204.913163, 0.182000
37.251400, 205.310705, 0.173000
37.251400, 205.708247, 0.173000
37.251400, 206.105789, 0.185000
37.251400, 206.503332, 0.187000
37.251400, 206.900874, 0.187000
37.251400, 207.298416, 0.185000
37.251400, 207.695958, 0.189000
37.251400, 208.093501, 0.263000
37.251400, 208.491043, 0.259000
37.251400, 208.888585, 0.261000
37.251400, 209.286127, 0.261000
37.251400, 209.683670, 0.261000
37.251400, 210.081212, 0.261000
37.251400, 210.478754, 0.168000
37.251400, 210.876297, 0.261000
37.251400, 211.273839, 0.252000
37.251400, 211.671381, 0.257000
37.251400, 212.068923, 0.261000
37.251400, 212.466466, 0.250000
37.251400, 212.864008, 0.252000
37.251400, 213.261550, 0.254000
37.251400, 213.659092, 0.192000
37.251400, 214.056635, 0.259000
37.251400, 214.454177, 0.257000
35.280340, 202.925451, 0.194000
35.280340, 203.322993, 0.192000
35.280340, 203.720536, 0.168000
35.280340, 204.118078, 0.192000
35.280340, 204.515620, 0.182000
35.280340, 204.913163, 0.194000
35.280340, 205.310705, 0.194000
35.280340, 205.708247, 0.182000
35.280340, 206.105789, 0.192000
35.280340, 206.503332, 0.203000
35.280340, 206.900874, 0.196000
35.280340, 207.298416, 0.187000
35.280340, 207.695958, 0.199000
35.280340, 208.093501, 0.168000
35.280340, 208.491043, 0.257000
35.280340, 208.888585, 0.168000
35.280340, 209.286127, 0.261000
35.280340, 209.683670, 0.259000
35.280340, 210.081212, 0.257000
35.280340, 210.478754, 0.245000
35.280340, 210.876297, 0.257000
35.280340, 211.273839, 0.259000
35.280340, 211.671381, 0.261000
35.280340, 212.068923, 0.259000
35.280340, 212.466466, 0.252000
35.280340, 212.864008, 0.247000
35.280340, 213.261550, 0.243000
35.280340, 213.659092, 0.257000
35.280340, 214.056635, 0.247000
35.280340, 214.454177, 0.254000
33.309280, 202.925451, 0.210000
33.309280, 203.322993, 0.194000
33.309280, 203.720536, 0.203000
33.309280, 204.118078, 0.210000
33.309280, 204.515620, 0.201000
33.309280, 204.913163, 0.202000
33.309280, 205.310705, 0.171000
33.309280, 205.708247, 0.212000
33.309280, 206.105789, 0.212000
33.309280, 206.503332, 0.238000
33.309280, 206.900874, 0.194000
33.309280, 207.298416, 0.210000
33.309280, 207.695958, 0.229000
33.309280, 208.093501, 0.261000
33.309280, 208.491043, 0.238000
33.309280, 208.888585, 0.259000
33.309280, 209.286127, 0.252000
33.309280, 209.683670, 0.259000
33.309280, 210.081212, 0.257000
33.309280, 210.478754, 0.259000
33.309280, 210.876297, 0.233000
33.309280, 211.273839, 0.203000
33.309280, 211.671381, 0.243000
33.309280, 212.068923, 0.259000
33.309280, 212.466466, 0.254000
33.309280, 212.864008, 0.238000
33.309280, 213.261550, 0.257000
33.309280, 213.659092, 0.254000
33.309280, 214.056635, 0.252000
33.309280, 214.454177, 0.245000
31.338240, 202.925451, 0.229000
31.338240, 203.322993, 0.192000
31.338240, 203.720536, 0.224000
31.338240, 204.118078, 0.257000
31.338240, 204.515620, 0.180000
31.338240, 204.913163, 0.171000
31.338240, 205.310705, 0.185000
31.338240, 205.708247, 0.203000
31.338240, 206.105789, 0.194000
31.338240, 206.503332, 0.217000
31.338240, 206.900874, 0.192000
31.338240, 207.298416, 0.236000
31.338240, 207.695958, 0.240000
31.338240, 208.093501, 0.217000
31.338240, 208.491043, 0.201000
31.338240, 208.888585, 0.208000
31.338240, 209.286127, 0.171000
31.338240, 209.683670, 0.252000
31.338240, 210.081212, 0.203000
31.338240, 210.478754, 0.226000
31.338240, 210.876297, 0.217000
31.338240, 211.273839, 0.210000
31.338240, 211.671381, 0.261000
31.338240, 212.068923, 0.259000
31.338240, 212.466466, 0.254000
31.338240, 212.864008, 0.203000
31.338240, 213.261550, 0.206000
31.338240, 213.659092, 0.226000
31.338240, 214.056635, 0.217000
31.338240, 214.454177, 0.192000
29.367180, 202.925451, 0.168000
29.367180, 203.322993, 0.203000
29.367180, 203.720536, 0.219000
29.367180, 204.118078, 0.212000
29.367180, 204.515620, 0.219000
29.367180, 204.913163, 0.224000
29.367180, 205.310705, 0.208000
29.367180, 205.708247, 0.203000
29.367180, 206.105789, 0.168000
29.367180, 206.503332, 0.217000
29.367180, 206.900874, 0.217000
29.367180, 207.298416, 0.219000
29.367180, 207.695958, 0.173000
29.367180, 208.093501, 0.261000
29.367180, 208.491043, 0.185000
29.367180, 208.888585, 0.192000
29.367180, 209.286127, 0.203000
29.367180, 209.683670, 0.210000
29.367180, 210.081212, 0.192000
29.367180, 210.478754, 0.201000
29.367180, 210.876297, 0.208000
29.367180, 211.273839, 0.208000
29.367180, 211.671381, 0.224000
29.367180, 212.068923, 0.259000
29.367180, 212.466466, 0.215000
29.367180, 212.864008, 0.210000
29.367180, 213.261550, 0.196000
29.367180, 213.659092, 0.194000
29.367180, 214.056635, 0.208000
29.367180, 214.454177, 0.192000
27.396140, 202.925451, 0.168000
27.396140, 203.322993, 0.212000
27.396140, 203.720536, 0.173000
27.396140, 204.118078, 0.206000
27.396140, 204.515620, 0.210000
27.396140, 204.913163, 0.168000
27.396140, 205.310705, 0.203000
27.396140, 205.708247, 0.206000
27.396140, 206.105789, 0.206000
27.396140, 206.503332, 0.171000
27.396140, 206.900874, 0.217000
27.396140, 207.298416, 0.215000
27.396140, 207.695958, 0.222000
27.396140, 208.093501, 0.266000
27.396140, 208.491043, 0.212000
27.396140, 208.888585, 0.208000
27.396140, 209.286127, 0.185000
27.396140, 209.683670, 0.229000
27.396140, 210.081212, 0.199000
27.396140, 210.478754, 0.203000
27.396140, 210.876297, 0.178000
27.396140, 211.273839, 0.168000
27.396140, 211.671381, 0.224000
27.396140, 212.068923, 0.226000
27.396140, 212.466466, 0.252000
27.396140, 212.864008, 0.210000
