8.377606179013076826e+01 3.366470759648374838e+02 7.006024583411738149e+01
8.794536759416141081e+01 3.365682828712650121e+02 7.004306830058902733e+01
9.198158519463765970e+01 3.365331402450635210e+02 7.001637390692644658e+01
7.498979816074972859e+01 3.353307208608759993e+02 7.000857258987070963e+01
7.936881317662385982e+01 3.351515833964984949e+02 7.000152679445449166e+01
8.362049930810493947e+01 3.350077704852371880e+02 7.001540165262406390e+01
8.779351785685257425e+01 3.349114220675634215e+02 7.001306631567291561e+01
9.183234502994733361e+01 3.348793055230912614e+02 7.002527252500203758e+01
9.185370092015361365e+01 3.357187303581051765e+02 7.000090166485193777e+01
8.784069558224214802e+01 3.357571972521812995e+02 7.002819261662801864e+01
8.368337250962395046e+01 3.358455588179724600e+02 7.002908937554865076e+01
7.940753832131554191e+01 3.359774518219706465e+02 7.004318164342896580e+01
7.926414877278817528e+01 3.343606953195227334e+02 7.000920011138754262e+01
8.351601749827160859e+01 3.342058968824062504e+02 7.001666857556523382e+01
8.776370938594841675e+01 3.340866769971177064e+02 7.002417768805628384e+01
9.195864682307657745e+01 3.340386917016840584e+02 7.001754915877251051e+01
7.479124239922421680e+01 3.329710816883012967e+02 7.003816142273569767e+01
7.898478755708357824e+01 3.327955895613256985e+02 7.004126015491743829e+01
8.306790899194565725e+01 3.326424316953508651e+02 7.004447712957096428e+01
8.705063415777988212e+01 3.324994438952323321e+02 7.005175221661124851e+01
9.064422868008801970e+01 3.323290264516836601e+02 7.006474420522710034e+01
9.234183555343872740e+01 3.331044296507263880e+02 7.004829150501916502e+01
8.761529850235280037e+01 3.332801454719163985e+02 7.003357830246363847e+01
8.333464078914555273e+01 3.334292318037978475e+02 7.003963933136077458e+01
7.911527379610291177e+01 3.335912508585269052e+02 7.001778471244534785e+01
7.483628225316834914e+01 3.337682722967719542e+02 7.001417281240503598e+01
7.884659432954316571e+01 3.320238708205335456e+02 7.004636146460973123e+01
8.284919180931349558e+01 3.318798777692624640e+02 7.003522088307073545e+01
8.668899151970981620e+01 3.317521903758171220e+02 7.003236452863211525e+01
7.464533457507933178e+01 3.298452921146886752e+02 7.007007775003921779e+01
7.875056510040788282e+01 3.304747913615908033e+02 7.004054822894840981e+01
8.277331639320144063e+01 3.303577118059541817e+02 7.002346070093057051e+01
8.691253222724083116e+01 3.295232052221508638e+02 7.005327181405692727e+01
9.088662221837464017e+01 3.294936643924222608e+02 7.004054635012010976e+01
9.055506955029585470e+01 3.302401454297159376e+02 7.001434985011536583e+01
8.275019542763786262e+01 3.311204221675730537e+02 7.001605823836553100e+01
7.875083899141161226e+01 3.312591320489606233e+02 7.000726001736910575e+01
7.464060234718181164e+01 3.306294360234871874e+02 7.003654487076698842e+01
7.466214843947388147e+01 3.290655760954544462e+02 7.013988892607267189e+01
7.876895383807379858e+01 3.297107741482119536e+02 7.004763188372965033e+01
8.284687134386533103e+01 3.296045696064334720e+02 7.007438689537247001e+01
8.707097817288907038e+01 3.287614676840306629e+02 7.011871433146239951e+01
9.110915105080836440e+01 3.287292078435696681e+02 7.011915209639983004e+01
7.469799772862675979e+01 3.282818142272251407e+02 7.022851444962878986e+01
7.882542103333939565e+01 3.289392082742689354e+02 7.011031133770336510e+01
8.307524318437840805e+01 3.280553590121483012e+02 7.019126159151045385e+01
8.719607028075185440e+01 3.279857249156216312e+02 7.022996221672542561e+01
9.126294084939367224e+01 3.279525859487973776e+02 7.022072772211089386e+01
7.479885048266086756e+01 3.266949879316479723e+02 7.054675308839324543e+01
7.905825121074629180e+01 3.265660459016406207e+02 7.057865838441011874e+01
8.325021388725086524e+01 3.264606901626971194e+02 7.057094428520747442e+01
8.739129370173215250e+01 3.263826897891975136e+02 7.053274770224832935e+01
9.147497052668525441e+01 3.263414727810676936e+02 7.052095656635913201e+01
9.135572142690162423e+01 3.271648434202949716e+02 7.034241551438435636e+01
8.728309153909842166e+01 3.272008521646441750e+02 7.036577752769517247e+01
8.315121750557524649e+01 3.272717502196273358e+02 7.037746476934518114e+01
7.896825519177613728e+01 3.273716125523535538e+02 7.034432331006104278e+01
7.910161728633427458e+01 3.257689973746332726e+02 7.055128999836500725e+01
8.329656233154607037e+01 3.256600659658303130e+02 7.054124836184405467e+01
8.743419568423048815e+01 3.255796743019640189e+02 7.052611136312549434e+01
9.150989162965861112e+01 3.255359713700181032e+02 7.055061161316056939e+01
7.489255924634798589e+01 3.243050102360634810e+02 7.064045785474877448e+01
7.918659957831998497e+01 3.241584098618353664e+02 7.064240750566062843e+01
8.338348468480783993e+01 3.240374837861513697e+02 7.060699033312317852e+01
8.750867882107387175e+01 3.239474301376193353e+02 7.060982812313011436e+01
9.156227328411894462e+01 3.238952879110424874e+02 7.064664527046699050e+01
9.151778121218224271e+01 3.247315897760283860e+02 7.059221384043900116e+01
8.745834374105798759e+01 3.247793672125388866e+02 7.057412154149403705e+01
8.332795328380497324e+01 3.248626168926070363e+02 7.057493826749839627e+01
7.912864119870080515e+01 3.249754520235788391e+02 7.058473192206668045e+01
7.484687270531183856e+01 3.251115197911112773e+02 7.052945892904853054e+01
7.489822726850823642e+01 3.235111357185965062e+02 7.066406160904222133e+01
7.920080387009585365e+01 3.233590834178376099e+02 7.065744195745151046e+01
8.339992575311408984e+01 3.232342330972749664e+02 7.062031905222210071e+01
8.751852368104057689e+01 3.231423022170810668e+02 7.061209416843325926e+01
9.155642266795616990e+01 3.230887157312757836e+02 7.067355385230860065e+01
7.493370376157261603e+01 3.219125103353832742e+02 7.049787582034690558e+01
7.924603392612577579e+01 3.217449192655932393e+02 7.053660510324198185e+01
8.344348203078806137e+01 3.216081859780955483e+02 7.058433340480644347e+01
8.755233400383244202e+01 3.215087194350804793e+02 7.060744128260893149e+01
9.157638627889362226e+01 3.214519307641976411e+02 7.065587663093344872e+01
9.154137387891890398e+01 3.222851594418677337e+02 7.064086347395743815e+01
8.751573912250293574e+01 3.223414007761832067e+02 7.064437317467177024e+01
8.340252771764937734e+01 3.224367530253952054e+02 7.058148780330702721e+01
7.920033977700620653e+01 3.225662317477983834e+02 7.056367570011707357e+01
7.489423302470412125e+01 3.227223838640947520e+02 7.057960106574421388e+01
7.493193868621531806e+01 3.211160939499136475e+02 7.044160866328866177e+01
7.924715231439085983e+01 3.209418542777796119e+02 7.048020842263065333e+01
8.344710347850383414e+01 3.208005517773980273e+02 7.055892543284659268e+01
8.755855741608333176e+01 3.206983544622464706e+02 7.058421843454800637e+01
9.158149130287942796e+01 3.206401980939275518e+02 7.064376248345507747e+01
7.491847237853264119e+01 3.203230403144410161e+02 7.037348283690772632e+01
7.923665315924856145e+01 3.201421383104092229e+02 7.043636065425846482e+01
8.344487431005687483e+01 3.199941763259347454e+02 7.054608945591706970e+01
8.756412653315898353e+01 3.198865566788082333e+02 7.055687711755308555e+01
9.159505651564667517e+01 3.198240214221316933e+02 7.062468787334734088e+01
7.490333229249402791e+01 3.187269987317199593e+02 7.034398516699081938e+01
7.921872851467230703e+01 3.185254419757919777e+02 7.041065479960235507e+01
8.343605654135410532e+01 3.183586876218219572e+02 7.050316492994653572e+01
8.758549003144867129e+01 3.182349685924444316e+02 7.056458370452531881e+01
9.166721918704175209e+01 3.181609202692361009e+02 7.060785525179153410e+01
9.161093458577869342e+01 3.190058071168904803e+02 7.062139411673723544e+01
8.756031488335723623e+01 3.190762147997814964e+02 7.057148488850867807e+01
8.342593018230010671e+01 3.191928271139349818e+02 7.051352474707994133e+01
7.920823696761338795e+01 3.193494996839805822e+02 7.044543805699117911e+01
7.917702860935682452e+01 3.177251878894016954e+02 7.040510225421570567e+01
8.341060750225896925e+01 3.175507657116727387e+02 7.046782981957250058e+01
8.758539112636390200e+01 3.174202699106712657e+02 7.053735753875139380e+01
9.170250547802018559e+01 3.173396320529195123e+02 7.059575130910440066e+01
7.464951902096935044e+01 3.155789937188764611e+02 7.024336516290873078e+01
7.904050916017256156e+01 3.161251620748084861e+02 7.032755914210582660e+01
8.333844483086389232e+01 3.159182164446866636e+02 7.042851160422416967e+01
8.760108660249335344e+01 3.157571447261959747e+02 7.049234189840763065e+01
9.180503961849386485e+01 3.156611809896662635e+02 7.056255397878408075e+01
9.174374129024599256e+01 3.165133549920562359e+02 7.056753760298289535e+01
8.758520853236136361e+01 3.166048530767073430e+02 7.052105948928436874e+01
8.337401262092944876e+01 3.167483880981564539e+02 7.044675551703500105e+01
7.911174364538828740e+01 3.169358315440351817e+02 7.039973104384421276e+01
7.481268958643184419e+01 3.171498694516347996e+02 7.029470188689782617e+01
7.454252654360193731e+01 3.148150262077796810e+02 7.020566027618610860e+01
7.889126138739881355e+01 3.153555967450543562e+02 7.032140669065586280e+01
8.323442711412023698e+01 3.151221972131182838e+02 7.039517106294118776e+01
8.761984813624776791e+01 3.149110343077279026e+02 7.046227997567683587e+01
9.189261626693125606e+01 3.148205350446562534e+02 7.053253356147456543e+01
7.866391663814964375e+01 3.146171452883370989e+02 7.027557193641763433e+01
8.532274711235193365e+01 3.135396012075815975e+02 7.035749440461967197e+01
8.755734773081705669e+01 3.139834726717372746e+02 7.041616122538312084e+01
9.212228908971199814e+01 3.139663475851387489e+02 7.048004006104588370e+01
7.453862359679918370e+01 3.124722521861596647e+02 7.013009067470574109e+01
7.843126905474531441e+01 3.131094439711860105e+02 7.021555105008121700e+01
8.248225394517167786e+01 3.122210509788408785e+02 7.025099148073201150e+01
8.631286309077674446e+01 3.121580650043284209e+02 7.028470555602291370e+01
8.991452978961086728e+01 3.121634773600051176e+02 7.036600758498161667e+01
8.916839743891085845e+01 3.130225101209366585e+02 7.038388643956420765e+01
8.586438178836247914e+01 3.129242736762510617e+02 7.034485851483941588e+01
8.221162680925226596e+01 3.129884421867390074e+02 7.029409651146829674e+01
7.843600128264280613e+01 3.138817906232006294e+02 7.025048769273030302e+01
7.447742417363592438e+01 3.132607053629306506e+02 7.018951447386928066e+01
7.871536249834720422e+01 3.115484530848601707e+02 7.013912878152564190e+01
8.271081598777070099e+01 3.114409222265634298e+02 7.018605577266515638e+01
8.662073179511767762e+01 3.113692538618043955e+02 7.023976405173749527e+01
9.035465741641185389e+01 3.113384913956499531e+02 7.028909481673656501e+01
7.475260094345044593e+01 3.101048638011246226e+02 7.002314568519489058e+01
7.895618116336247283e+01 3.099641196754295720e+02 7.007578538380926148e+01
8.305137662663823050e+01 3.098482425556309749e+02 7.012646956806707976e+01
8.704422815152643977e+01 3.097586597408076727e+02 7.019453966155049329e+01
9.090427297194716516e+01 3.096992348403970254e+02 7.023869429083487148e+01
9.063011568531331363e+01 3.105242073951266661e+02 7.026587529321278680e+01
8.682923132169466385e+01 3.105731427127896040e+02 7.022669104177265353e+01
8.287027380851607461e+01 3.106548762595563744e+02 7.015866403597715362e+01
7.881436648810625911e+01 3.107652504148270509e+02 7.009924902633945010e+01
7.467078361417428312e+01 3.109002494890569324e+02 7.005599159151159938e+01
7.897373301185041328e+01 3.091758315951004192e+02 7.003075144947933950e+01
8.307506059037606860e+01 3.090571598363533781e+02 7.011506222086052276e+01
8.707626579087740026e+01 3.089642510280193051e+02 7.017551554744369469e+01
9.096306063266092679e+01 3.089011642160864994e+02 7.024126320490563558e+01
7.476449237786158619e+01 3.077348594879039183e+02 7.001830949570933171e+01
7.894466252503963233e+01 3.075922222871352005e+02 7.004380364294456740e+01
8.302556239953815975e+01 3.074729577551325406e+02 7.010876497738075841e+01
8.702425693250556549e+01 3.073798122470076919e+02 7.017359153526712134e+01
9.094374370881567415e+01 3.073160177967324103e+02 7.022793850848961483e+01
9.094429909890651231e+01 3.081157173915657381e+02 7.021627393756216406e+01
8.703754064618568975e+01 3.081800317127438120e+02 7.015093525572723365e+01
8.303419757423857561e+01 3.082746370974085721e+02 7.010528886270697058e+01
7.893723703560551996e+01 3.083948237169666413e+02 7.001917461511931151e+01
7.474824151164126818e+01 3.085346968540458192e+02 7.003524408482871877e+01
7.472223708245527973e+01 3.069509604392989672e+02 7.002777503850899166e+01
7.887909606198397228e+01 3.068110139985228102e+02 7.005162315109777182e+01
8.293444799230290698e+01 3.066962248351948119e+02 7.012116472422707147e+01
8.691457880168526628e+01 3.066072590763220660e+02 7.018732628747585522e+01
9.082886164892479997e+01 3.065461714638110493e+02 7.022294659533281447e+01
7.881547726828793543e+01 3.060323363177434999e+02 7.007791682955206625e+01
8.285179377384876886e+01 3.059217440002702801e+02 7.018738181328041037e+01
8.681548351492487825e+01 3.058370326231096215e+02 7.019970692098132758e+01
9.072215067064452398e+01 3.057795233678469344e+02 7.021046678879673664e+01
7.469437628091095860e+01 3.045804482985641357e+02 7.000897836558311838e+01
7.879792541979999498e+01 3.044469089438900937e+02 7.004710726575615354e+01
8.280861029226331027e+01 3.043438798699658037e+02 7.008898670161318023e+01
8.675159083022529671e+01 3.042706522077561431e+02 7.007733964569096941e+01
9.064181691763867832e+01 3.042240457970927991e+02 7.009235911511535733e+01
9.066336300993076236e+01 3.050101208446608894e+02 7.016226047596154558e+01
8.675790553947757644e+01 3.050644978341795195e+02 7.017383520125656560e+01
8.279978491547694830e+01 3.051462356257716237e+02 7.020848101848639544e+01
7.877377736297265187e+01 3.052543404873760551e+02 7.011801218035782313e+01
7.466753496254696643e+01 3.053841123606898122e+02 7.000977881425012583e+01
7.888875832794829535e+01 3.036277286143484844e+02 7.000801229750601351e+01
8.293259161994423323e+01 3.035283990431236134e+02 7.001270634434968088e+01
8.690362316153668587e+01 3.034655822235720848e+02 7.000595626176647102e+01
9.080944581999476384e+01 3.034297052473816052e+02 7.000737768449840814e+01
7.454011478115261013e+01 3.021846782864310512e+02 7.006967745342285525e+01
7.700651848576065106e+01 3.013514113012044504e+02 7.006418990606812258e+01
8.369479224286220642e+01 3.017980502208484950e+02 7.011009214297337166e+01
8.778395449597280731e+01 3.017751501742721416e+02 7.008028280579173952e+01
9.171263183707418420e+01 3.017657429007552992e+02 7.008238361334321098e+01
9.120499007785787171e+01 3.026063282451368650e+02 7.005541164810563259e+01
8.726869704523662108e+01 3.026295212298664978e+02 7.005509671999840293e+01
8.322115100852350622e+01 3.026755847068951084e+02 7.005211047556286985e+01
7.906957964698332830e+01 3.027646666899984211e+02 7.007152408826863166e+01
7.475956994787814835e+01 3.029588096929946346e+02 7.007784849608844979e+01
7.399755191896291251e+01 3.014837685031203591e+02 7.007293401964915347e+01
7.764854182271581351e+01 3.007272674380974991e+02 7.006486332546643325e+01
8.101673165705102519e+01 3.008425856067192967e+02 7.006625774478300173e+01
8.471360591200928525e+01 3.008940363030665708e+02 7.008507919908419126e+01
8.861748090110771159e+01 3.008970794879584787e+02 7.008350873780580059e+01
9.250000000000000000e+01 3.008942386974248393e+02 7.008740145867841420e+01
7.464998311405901177e+01 3.314170233222343995e+02 7.000307943322536630e+01
7.475047068008807116e+01 3.163597153253933811e+02 7.027208260409832974e+01
7.404825979506709643e+01 3.007375425876042527e+02 7.004795480007294373e+01
7.919876490373485467e+01 3.018133014484428713e+02 7.008881963499777612e+01
7.888123393342958423e+01 3.281629286330831405e+02 7.019903055926477009e+01
7.853063823250923292e+01 3.123362929011607889e+02 7.019315118627378070e+01
8.221979789086300627e+01 3.137168809052622009e+02 7.032761739806335299e+01
8.287677871985425782e+01 3.143875634713641034e+02 7.035189772819143172e+01
8.294364616517758293e+01 3.288404266922693751e+02 7.010109404260032306e+01
8.669503233795833808e+01 3.302805417181089069e+02 7.000916128123731141e+01
8.659258949448604881e+01 3.310220670718524048e+02 7.001511525534516522e+01
9.030134757577236826e+01 3.309536304710412651e+02 7.003264462324438000e+01
9.023680059589703717e+01 3.316377252661170587e+02 7.006047391136019087e+01
6.664849329115190812e+01 7.894736652641193286e-01 7.003598463130623486e+01
6.664849329115190812e+01 1.578947367930001011e+00 7.001550752096318320e+01
6.664849329115190812e+01 2.368420977872076616e+00 7.003368953554456766e+01
6.664849329115190812e+01 3.157894920141340656e+00 7.008521195383679014e+01
6.664849329115190812e+01 3.947368358361377449e+00 7.014848488530867598e+01
6.664849329115190812e+01 4.736842256387371997e+00 7.014771199141819125e+01
6.664849329115190812e+01 5.526315548994112703e+00 7.016523453271940980e+01
6.664849329115190812e+01 6.315789527672448500e+00 7.013947084446130020e+01
6.664849329115190812e+01 7.105262953799174497e+00 7.020769961984836982e+01
6.664849329115190812e+01 7.894736822106574792e+00 7.026524640683004463e+01
6.664849329115190812e+01 8.684210383687709367e+00 7.025813785359844132e+01
6.664849329115190812e+01 9.473684923066079122e+00 7.027819146685578744e+01
6.664849329115190812e+01 1.026315804021128386e+01 7.030005076243884332e+01
6.664849329115190812e+01 1.105263205270487958e+01 7.028378315545103305e+01
6.664849329115190812e+01 1.184210527553174330e+01 7.026212157147767812e+01
6.664849329115190812e+01 1.263157785204498218e+01 7.022313338595802179e+01
6.664849329115190812e+01 1.342105232616219190e+01 7.020071849611809967e+01
6.664849329115190812e+01 1.421052666294080602e+01 7.018335065947269413e+01
6.664849329115190812e+01 1.499999989360930819e+01 7.019021231857544763e+01
6.664849329115190812e+01 1.578947361783115966e+01 7.014495330724724909e+01
6.664849329115190812e+01 1.657894659073297916e+01 7.011250643316026299e+01
6.664849329115190812e+01 1.736841916292352650e+01 7.009191530654140934e+01
6.664849329115190812e+01 1.815789408860959142e+01 7.007028224156289298e+01
6.664849329115190812e+01 1.894736854253368818e+01 7.005348955285506918e+01
6.664849329115190812e+01 1.973684239567033671e+01 7.000002208010391769e+01
6.664849329115190812e+01 2.052631646988038838e+01 7.003985791078611101e+01
6.664849329115190812e+01 2.131578876009536927e+01 7.006971966169237476e+01
6.664849329115190812e+01 2.210526285260279877e+01 7.008672836605836665e+01
6.664849329115190812e+01 2.289473572004411039e+01 7.013482522652708440e+01
6.664849329115190812e+01 2.368420986148022322e+01 7.018627987914533151e+01
6.664849329115190812e+01 2.447368447640081612e+01 7.029862208045534544e+01
6.664849329115190812e+01 2.526315739249692882e+01 7.037433553698383548e+01
6.664849329115190812e+01 2.605263310490014561e+01 7.044198655537189779e+01
6.664849329115190812e+01 2.684210491003450727e+01 7.054131113972948697e+01
6.664849329115190812e+01 2.763157925168302498e+01 7.058314759519493009e+01
6.664849329115190812e+01 2.842105187910176767e+01 7.060851416444813822e+01
6.664849329115190812e+01 2.921052732843206456e+01 7.059114584116673541e+01
6.664849329115190812e+01 3.000000082461344775e+01 7.058610681842293388e+01
6.664849329115190812e+01 3.078947211165050035e+01 7.051045155877818615e+01
6.664849329115190812e+01 3.157894777432792921e+01 7.048453720367615460e+01
6.664849329115190812e+01 3.236842025086797747e+01 7.045449395884003252e+01
6.664849329115190812e+01 3.315789371755550263e+01 7.042890603855181553e+01
6.664849329115190812e+01 3.394736708353536869e+01 7.038095146779875222e+01
6.664849329115190812e+01 3.473683947932686067e+01 7.032638222343945245e+01
6.664849329115190812e+01 3.552631601645720849e+01 7.027530709473535353e+01
6.664849329115190812e+01 3.631579015766080687e+01 7.022168737824370055e+01
6.664849329115190812e+01 3.710526288183825727e+01 7.020078623682792340e+01
6.664849329115190812e+01 3.789473761802329932e+01 7.017998907606869352e+01
6.664849329115190812e+01 3.868420966684608686e+01 7.021295721419227220e+01
6.664849329115190812e+01 3.947368533485720832e+01 7.024227351157509247e+01
6.664849329115190812e+01 4.026315766928073714e+01 7.026996650591979687e+01
6.664849329115190812e+01 4.105262962645296199e+01 7.035923295921526233e+01
6.664849329115190812e+01 4.184210657928029065e+01 7.040117803030977939e+01
6.664849329115190812e+01 4.263158013193491769e+01 7.045025050932513011e+01
6.664849329115190812e+01 4.342105253601766890e+01 7.048342476381390043e+01
6.664849329115190812e+01 4.421052388672472233e+01 7.055125467529495609e+01
6.664849329115190812e+01 4.500000000000000000e+01 7.062113913260157005e+01
6.664849329115190812e+01 4.578947611327527767e+01 7.063632695318000287e+01
6.664849329115190812e+01 4.657894746398233110e+01 7.070475974549827924e+01
6.664849329115190812e+01 4.736841986806508942e+01 7.072941772613233979e+01
6.664849329115190812e+01 4.815789342071971646e+01 7.074570869524632144e+01
6.664849329115190812e+01 4.894737037354705933e+01 7.072634489904169186e+01
6.664849329115190812e+01 4.973684233071926286e+01 7.074913863318596441e+01
6.664849329115190812e+01 5.052631466514279879e+01 7.076270585000031588e+01
6.664849329115190812e+01 5.131579033315389893e+01 7.074973031661875211e+01
6.664849329115190812e+01 5.210526238197672200e+01 7.076782188826047104e+01
6.664849329115190812e+01 5.289473711816174983e+01 7.077929623634588552e+01
6.664849329115190812e+01 5.368420984233916471e+01 7.077161399556609922e+01
6.664849329115190812e+01 5.447368398354278440e+01 7.074945919329024946e+01
6.664849329115190812e+01 5.526316052067313933e+01 7.068195408836174920e+01
6.664849329115190812e+01 5.605263291646463131e+01 7.064383997625577649e+01
6.664849329115190812e+01 5.684210628244449737e+01 7.059264256992997844e+01
6.664849329115190812e+01 5.763157974913201542e+01 7.053191291985859834e+01
6.664849329115190812e+01 5.842105222567207790e+01 7.045673289736168954e+01
6.664849329115190812e+01 5.921052788834949610e+01 7.037973655481778223e+01
6.664849329115190812e+01 5.999999917538654159e+01 7.029358610006158870e+01
6.664849329115190812e+01 6.078947267156793544e+01 7.028957451012098545e+01
6.664849329115190812e+01 6.157894812089823944e+01 7.027615517729867634e+01
6.664849329115190812e+01 6.236842074831697147e+01 7.018914809225663021e+01
6.664849329115190812e+01 6.315789508996548562e+01 7.023244735241280523e+01
6.664849329115190812e+01 6.394736689509985439e+01 7.020792916291611618e+01
6.664849329115190812e+01 6.473684260750307828e+01 7.009346915951095980e+01
6.664849329115190812e+01 6.552631552359919453e+01 7.013210757868512246e+01
6.664849329115190812e+01 6.631579013851977322e+01 7.023660956547666956e+01
6.664849329115190812e+01 6.710526427995588961e+01 7.021280758266362909e+01
6.664849329115190812e+01 6.789473714739719412e+01 7.030820454944944231e+01
6.664849329115190812e+01 6.868421123990462718e+01 7.033504263783595434e+01
6.664849329115190812e+01 6.947368353011961517e+01 7.031115597242813919e+01
6.664849329115190812e+01 7.026315760432967750e+01 7.039187307658392001e+01
6.664849329115190812e+01 7.105263145746631892e+01 7.041803255609124790e+01
6.664849329115190812e+01 7.184210591139040503e+01 7.042604505000696236e+01
6.664849329115190812e+01 7.263158083707648416e+01 7.046805313151457995e+01
6.664849329115190812e+01 7.342105340926700308e+01 7.049464791878352798e+01
6.664849329115190812e+01 7.421052638216883679e+01 7.054608325514720946e+01
6.664849329115190812e+01 7.500000010639068648e+01 7.058315105598808259e+01
6.664849329115190812e+01 7.578947333705920641e+01 7.058447716836195696e+01
6.664849329115190812e+01 7.657894767383778856e+01 7.056429512387074965e+01
6.664849329115190812e+01 7.736842214795500183e+01 7.063123386030963502e+01
6.664849329115190812e+01 7.815789472446824959e+01 7.065716446100219628e+01
6.664849329115190812e+01 7.894736794729512042e+01 7.066660534575771635e+01
6.664849329115190812e+01 7.973684195978871969e+01 7.068615096280984744e+01
6.664849329115190812e+01 8.052631507693388357e+01 7.069732772821004119e+01
6.664849329115190812e+01 8.131578961631230129e+01 7.068725787598680199e+01
6.664849329115190812e+01 8.210526317789341988e+01 7.070355878911686887e+01
6.664849329115190812e+01 8.289473704620083083e+01 7.071670743168346007e+01
6.664849329115190812e+01 8.368421047232754972e+01 7.072351169426661954e+01
6.664849329115190812e+01 8.447368445100589440e+01 7.074976847322425044e+01
6.664849329115190812e+01 8.526315774361262356e+01 7.082601016165676810e+01
6.664849329115190812e+01 8.605263164163862655e+01 7.098011920436886157e+01
6.664849329115190812e+01 8.684210507985865490e+01 7.099986981137811881e+01
6.664849329115190812e+01 8.763157902212792294e+01 7.101258303766849167e+01
6.664849329115190812e+01 8.842105263207000121e+01 7.093319712315525294e+01
6.664849329115190812e+01 8.921052633473587434e+01 7.094382480942306302e+01
6.280692850539830374e+01 7.894736652641193286e-01 7.000115288410222547e+01
6.280692850539830374e+01 1.578947367930001011e+00 7.007339191997391481e+01
6.280692850539830374e+01 2.368420977872076616e+00 7.014118083129062597e+01
6.280692850539830374e+01 3.157894920141340656e+00 7.017041647388333558e+01
6.280692850539830374e+01 3.947368358361377449e+00 7.019980488414194042e+01
6.280692850539830374e+01 4.736842256387371997e+00 7.020467268984845077e+01
6.280692850539830374e+01 5.526315548994112703e+00 7.020140873254496228e+01
6.280692850539830374e+01 6.315789527672448500e+00 7.012863357796419450e+01
6.280692850539830374e+01 7.105262953799174497e+00 7.021333642283099152e+01
6.280692850539830374e+01 7.894736822106574792e+00 7.026636702909661381e+01
6.280692850539830374e+01 8.684210383687709367e+00 7.030419942634284780e+01
6.280692850539830374e+01 9.473684923066079122e+00 7.031074678165253999e+01
6.280692850539830374e+01 1.026315804021128386e+01 7.031068048399401960e+01
6.280692850539830374e+01 1.105263205270487958e+01 7.031309500615907382e+01
6.280692850539830374e+01 1.184210527553174330e+01 7.031052067468641553e+01
6.280692850539830374e+01 1.263157785204498218e+01 7.027413368017801076e+01
6.280692850539830374e+01 1.342105232616219190e+01 7.025749838008124470e+01
6.280692850539830374e+01 1.421052666294080602e+01 7.024170606505600745e+01
6.280692850539830374e+01 1.499999989360930819e+01 7.021862246364048588e+01
6.280692850539830374e+01 1.578947361783115966e+01 7.017950851028740544e+01
6.280692850539830374e+01 1.657894659073297916e+01 7.015356330496882720e+01
6.280692850539830374e+01 1.736841916292352650e+01 7.010799527223747418e+01
6.280692850539830374e+01 1.815789408860959142e+01 7.011039027226530607e+01
6.280692850539830374e+01 1.894736854253368818e+01 7.008278854823470283e+01
6.280692850539830374e+01 1.973684239567033671e+01 7.002518757462468102e+01
6.280692850539830374e+01 2.052631646988038838e+01 7.001089416584682112e+01
6.280692850539830374e+01 2.131578876009536927e+01 7.001925139620709615e+01
6.280692850539830374e+01 2.210526285260279877e+01 7.007231743049510442e+01
6.280692850539830374e+01 2.289473572004411039e+01 7.014586617987163208e+01
6.280692850539830374e+01 2.368420986148022322e+01 7.019755917132448531e+01
6.280692850539830374e+01 2.447368447640081612e+01 7.026274469386521559e+01
6.280692850539830374e+01 2.526315739249692882e+01 7.033815375518553026e+01
6.280692850539830374e+01 2.605263310490014561e+01 7.040657950203694782e+01
6.280692850539830374e+01 2.684210491003450727e+01 7.044215900382357631e+01
6.280692850539830374e+01 2.763157925168302498e+01 7.048680305399068402e+01
6.280692850539830374e+01 2.842105187910176767e+01 7.050425591682596860e+01
6.280692850539830374e+01 2.921052732843206456e+01 7.049176847875440899e+01
6.280692850539830374e+01 3.000000082461344775e+01 7.046837391021546182e+01
6.280692850539830374e+01 3.078947211165050035e+01 7.043838502206716612e+01
6.280692850539830374e+01 3.157894777432792921e+01 7.039946862882987944e+01
6.280692850539830374e+01 3.236842025086797747e+01 7.033807040373727659e+01
6.280692850539830374e+01 3.315789371755550263e+01 7.031299187943676543e+01
6.280692850539830374e+01 3.394736708353536869e+01 7.026012383218477453e+01
6.280692850539830374e+01 3.473683947932686067e+01 7.020826529496088142e+01
6.280692850539830374e+01 3.552631601645720849e+01 7.019230907356700300e+01
6.280692850539830374e+01 3.631579015766080687e+01 7.015902920917187657e+01
6.280692850539830374e+01 3.710526288183825727e+01 7.011809932454076488e+01
6.280692850539830374e+01 3.789473761802329932e+01 7.011811120661195673e+01
6.280692850539830374e+01 3.868420966684608686e+01 7.014756525765437800e+01
6.280692850539830374e+01 3.947368533485720832e+01 7.013729601506094014e+01
6.280692850539830374e+01 4.026315766928073714e+01 7.018347706299545052e+01
6.280692850539830374e+01 4.105262962645296199e+01 7.021110027547706522e+01
6.280692850539830374e+01 4.184210657928029065e+01 7.027168655960701926e+01
6.280692850539830374e+01 4.263158013193491769e+01 7.030436887293654991e+01
6.280692850539830374e+01 4.342105253601766890e+01 7.036541085338251378e+01
6.280692850539830374e+01 4.421052388672472233e+01 7.038692516713990699e+01
6.280692850539830374e+01 4.500000000000000000e+01 7.044863602297692751e+01
6.280692850539830374e+01 4.578947611327527767e+01 7.050052600832412963e+01
6.280692850539830374e+01 4.657894746398233110e+01 7.052870874966134807e+01
6.280692850539830374e+01 4.736841986806508942e+01 7.059697720119845599e+01
6.280692850539830374e+01 4.815789342071971646e+01 7.057882999399561186e+01
6.280692850539830374e+01 4.894737037354705933e+01 7.060322583313723044e+01
6.280692850539830374e+01 4.973684233071926286e+01 7.060034352110142208e+01
6.280692850539830374e+01 5.052631466514279879e+01 7.062038290835914722e+01
6.280692850539830374e+01 5.131579033315389893e+01 7.061330758811601527e+01
6.280692850539830374e+01 5.210526238197672200e+01 7.066010900332457823e+01
6.280692850539830374e+01 5.289473711816174983e+01 7.064638727426761022e+01
6.280692850539830374e+01 5.368420984233916471e+01 7.065474923703845889e+01
6.280692850539830374e+01 5.447368398354278440e+01 7.061081286917635680e+01
6.280692850539830374e+01 5.526316052067313933e+01 7.056901171575441367e+01
6.280692850539830374e+01 5.605263291646463131e+01 7.052325685966229685e+01
6.280692850539830374e+01 5.684210628244449737e+01 7.049664831185435787e+01
6.280692850539830374e+01 5.763157974913201542e+01 7.042507410959143499e+01
6.280692850539830374e+01 5.842105222567207790e+01 7.036957007961541422e+01
6.280692850539830374e+01 5.921052788834949610e+01 7.032111538740628021e+01
6.280692850539830374e+01 5.999999917538654159e+01 7.025917504881175546e+01
6.280692850539830374e+01 6.078947267156793544e+01 7.020182591755497015e+01
6.280692850539830374e+01 6.157894812089823944e+01 7.016306772553338078e+01
6.280692850539830374e+01 6.236842074831697147e+01 7.013517562543387385e+01
6.280692850539830374e+01 6.315789508996548562e+01 7.010140756668880613e+01
6.280692850539830374e+01 6.394736689509985439e+01 7.005519373890354018e+01
6.280692850539830374e+01 6.473684260750307828e+01 7.006447628752147239e+01
6.280692850539830374e+01 6.552631552359919453e+01 7.005239920312754975e+01
6.280692850539830374e+01 6.631579013851977322e+01 7.010649689186402611e+01
6.280692850539830374e+01 6.710526427995588961e+01 7.010144257540804347e+01
6.280692850539830374e+01 6.789473714739719412e+01 7.013526000299805219e+01
6.280692850539830374e+01 6.868421123990462718e+01 7.017259899887619667e+01
6.280692850539830374e+01 6.947368353011961517e+01 7.021394748611595560e+01
6.280692850539830374e+01 7.026315760432967750e+01 7.023691507772275600e+01
6.280692850539830374e+01 7.105263145746631892e+01 7.028731917357242764e+01
6.280692850539830374e+01 7.184210591139040503e+01 7.030597396034397661e+01
6.280692850539830374e+01 7.263158083707648416e+01 7.035897133583057439e+01
6.280692850539830374e+01 7.342105340926700308e+01 7.037748737394673526e+01
6.280692850539830374e+01 7.421052638216883679e+01 7.040328161673789964e+01
6.280692850539830374e+01 7.500000010639068648e+01 7.041321993477743035e+01
6.280692850539830374e+01 7.578947333705920641e+01 7.043085674627025128e+01
6.280692850539830374e+01 7.657894767383778856e+01 7.046044255827376901e+01
6.280692850539830374e+01 7.736842214795500183e+01 7.042854752728385392e+01
6.280692850539830374e+01 7.815789472446824959e+01 7.044457817089369200e+01
6.280692850539830374e+01 7.894736794729512042e+01 7.048454152636355730e+01
6.280692850539830374e+01 7.973684195978871969e+01 7.046849149046482808e+01
6.280692850539830374e+01 8.052631507693388357e+01 7.052641654679052863e+01
6.280692850539830374e+01 8.131578961631230129e+01 7.051497590433535834e+01
6.280692850539830374e+01 8.210526317789341988e+01 7.054049918252036377e+01
6.280692850539830374e+01 8.289473704620083083e+01 7.056624406547564377e+01
6.280692850539830374e+01 8.368421047232754972e+01 7.060118984851226287e+01
6.280692850539830374e+01 8.447368445100589440e+01 7.066527930168103921e+01
6.280692850539830374e+01 8.526315774361262356e+01 7.072015394148058931e+01
6.280692850539830374e+01 8.605263164163862655e+01 7.077804228722180824e+01
6.280692850539830374e+01 8.684210507985865490e+01 7.079874267915931796e+01
6.280692850539830374e+01 8.763157902212792294e+01 7.079645076263136616e+01
6.280692850539830374e+01 8.842105263207000121e+01 7.076847033949502475e+01
6.280692850539830374e+01 8.921052633473587434e+01 7.074886383234212417e+01
5.896536371964485568e+01 7.894736652641193286e-01 7.000526684167249414e+01
5.896536371964485568e+01 1.578947367930001011e+00 7.004691586899832600e+01
5.896536371964485568e+01 2.368420977872076616e+00 7.010107994618340399e+01
5.896536371964485568e+01 3.157894920141340656e+00 7.021408209867661299e+01
5.896536371964485568e+01 3.947368358361377449e+00 7.020567373407084233e+01
5.896536371964485568e+01 4.736842256387371997e+00 7.020774147639986040e+01
5.896536371964485568e+01 5.526315548994111815e+00 7.017020846460565053e+01
5.896536371964485568e+01 6.315789527672447612e+00 7.009036622802670990e+01
5.896536371964485568e+01 7.105262953799172720e+00 7.019797482644253250e+01
5.896536371964485568e+01 7.894736822106574792e+00 7.026514951590081637e+01
5.896536371964485568e+01 8.684210383687709367e+00 7.025940430944046966e+01
5.896536371964485568e+01 9.473684923066079122e+00 7.027633729480766078e+01
5.896536371964485568e+01 1.026315804021128386e+01 7.030227230501230906e+01
5.896536371964485568e+01 1.105263205270487958e+01 7.029492231833921778e+01
5.896536371964485568e+01 1.184210527553174330e+01 7.028781517512891241e+01
5.896536371964485568e+01 1.263157785204498218e+01 7.025780283595327091e+01
5.896536371964485568e+01 1.342105232616219190e+01 7.023444376241280906e+01
5.896536371964485568e+01 1.421052666294080602e+01 7.022987936046780533e+01
5.896536371964485568e+01 1.499999989360930819e+01 7.019140836942489159e+01
5.896536371964485568e+01 1.578947361783115966e+01 7.016148383707661651e+01
5.896536371964485568e+01 1.657894659073297916e+01 7.011988542418208681e+01
5.896536371964485568e+01 1.736841916292352650e+01 7.007950803071508972e+01
5.896536371964485568e+01 1.815789408860959142e+01 7.008462424523463596e+01
5.896536371964485568e+01 1.894736854253368818e+01 7.004067210690993761e+01
5.896536371964485568e+01 1.973684239567033671e+01 7.001303839413941432e+01
5.896536371964485568e+01 2.052631646988038838e+01 7.004289014623014964e+01
5.896536371964485568e+01 2.131578876009536927e+01 7.008774865087406170e+01
5.896536371964485568e+01 2.210526285260279877e+01 7.009776824693335584e+01
5.896536371964485568e+01 2.289473572004411039e+01 7.017289986896497567e+01
5.896536371964485568e+01 2.368420986148022322e+01 7.023486059685211558e+01
5.896536371964485568e+01 2.447368447640081612e+01 7.030901085000033390e+01
5.896536371964485568e+01 2.526315739249692882e+01 7.037613882227753948e+01
5.896536371964485568e+01 2.605263310490014561e+01 7.040879144474399709e+01
5.896536371964485568e+01 2.684210491003450727e+01 7.046686455627673240e+01
5.896536371964485568e+01 2.763157925168302498e+01 7.045932958321350270e+01
5.896536371964485568e+01 2.842105187910176767e+01 7.046339795228669800e+01
5.896536371964485568e+01 2.921052732843206456e+01 7.046907499473144298e+01
5.896536371964485568e+01 3.000000082461344775e+01 7.043427603549531568e+01
5.896536371964485568e+01 3.078947211165050035e+01 7.043186607008635747e+01
5.896536371964485568e+01 3.157894777432792921e+01 7.037986207842993736e+01
5.896536371964485568e+01 3.236842025086797747e+01 7.032708836843727340e+01
5.896536371964485568e+01 3.315789371755550263e+01 7.027862856328721364e+01
5.896536371964485568e+01 3.394736708353536869e+01 7.022127659545299139e+01
5.896536371964485568e+01 3.473683947932686067e+01 7.021160248521994163e+01
5.896536371964485568e+01 3.552631601645720849e+01 7.018542174140611678e+01
5.896536371964485568e+01 3.631579015766080687e+01 7.017201434029391294e+01
5.896536371964485568e+01 3.710526288183825727e+01 7.016141061551286384e+01
5.896536371964485568e+01 3.789473761802329932e+01 7.015519395049153673e+01
5.896536371964485568e+01 3.868420966684608686e+01 7.014074928288181354e+01
5.896536371964485568e+01 3.947368533485720832e+01 7.016572481195576927e+01
5.896536371964485568e+01 4.026315766928073714e+01 7.014233845814976576e+01
5.896536371964485568e+01 4.105262962645296199e+01 7.020840620294308110e+01
5.896536371964485568e+01 4.184210657928029065e+01 7.022458477315865366e+01
5.896536371964485568e+01 4.263158013193491769e+01 7.027064194123698826e+01
5.896536371964485568e+01 4.342105253601766890e+01 7.031790883937401304e+01
5.896536371964485568e+01 4.421052388672472233e+01 7.036592913550929040e+01
5.896536371964485568e+01 4.500000000000000000e+01 7.041349826055608219e+01
5.896536371964485568e+01 4.578947611327527767e+01 7.044679351559392444e+01
5.896536371964485568e+01 4.657894746398233110e+01 7.048603920088646646e+01
5.896536371964485568e+01 4.736841986806508942e+01 7.052863102391893335e+01
5.896536371964485568e+01 4.815789342071971646e+01 7.054832318068582708e+01
5.896536371964485568e+01 4.894737037354705933e+01 7.056717972002144279e+01
5.896536371964485568e+01 4.973684233071926286e+01 7.057986407378717786e+01
5.896536371964485568e+01 5.052631466514279879e+01 7.058125361699785572e+01
5.896536371964485568e+01 5.131579033315389893e+01 7.059679013307004425e+01
5.896536371964485568e+01 5.210526238197672200e+01 7.060057806423372995e+01
5.896536371964485568e+01 5.289473711816174983e+01 7.061832027435343662e+01
5.896536371964485568e+01 5.368420984233916471e+01 7.062695725149461623e+01
5.896536371964485568e+01 5.447368398354278440e+01 7.057842650058063327e+01
5.896536371964485568e+01 5.526316052067313933e+01 7.054664892943020504e+01
5.896536371964485568e+01 5.605263291646463131e+01 7.048717193478864829e+01
5.896536371964485568e+01 5.684210628244449737e+01 7.044318873884373033e+01
5.896536371964485568e+01 5.763157974913201542e+01 7.040587786660518077e+01
5.896536371964485568e+01 5.842105222567207790e+01 7.036391348729273432e+01
5.896536371964485568e+01 5.921052788834949610e+01 7.031522705467637024e+01
5.896536371964485568e+01 5.999999917538654159e+01 7.026720913694651927e+01
5.896536371964485568e+01 6.078947267156793544e+01 7.021681594985381025e+01
5.896536371964485568e+01 6.157894812089823944e+01 7.016471089473549227e+01
5.896536371964485568e+01 6.236842074831697147e+01 7.015227567181307222e+01
5.896536371964485568e+01 6.315789508996548562e+01 7.009604876906576010e+01
5.896536371964485568e+01 6.394736689509985439e+01 7.009252902348254111e+01
5.896536371964485568e+01 6.473684260750307828e+01 7.001180429491660107e+01
5.896536371964485568e+01 6.552631552359919453e+01 7.003650727980181045e+01
5.896536371964485568e+01 6.631579013851977322e+01 7.008225936097556996e+01
5.896536371964485568e+01 6.710526427995588961e+01 7.009773882912526233e+01
5.896536371964485568e+01 6.789473714739719412e+01 7.012727269048957623e+01
5.896536371964485568e+01 6.868421123990462718e+01 7.017162742732540437e+01
5.896536371964485568e+01 6.947368353011961517e+01 7.020539531983018833e+01
5.896536371964485568e+01 7.026315760432967750e+01 7.023612701701489414e+01
5.896536371964485568e+01 7.105263145746631892e+01 7.027017751673042767e+01
5.896536371964485568e+01 7.184210591139040503e+01 7.030139948995321220e+01
5.896536371964485568e+01 7.263158083707648416e+01 7.031232544241890992e+01
5.896536371964485568e+01 7.342105340926700308e+01 7.033306391924952550e+01
5.896536371964485568e+01 7.421052638216883679e+01 7.038035848705277431e+01
5.896536371964485568e+01 7.500000010639068648e+01 7.038599117538524297e+01
5.896536371964485568e+01 7.578947333705920641e+01 7.037953596023896807e+01
5.896536371964485568e+01 7.657894767383778856e+01 7.039471014793156201e+01
5.896536371964485568e+01 7.736842214795500183e+01 7.041374141188816793e+01
5.896536371964485568e+01 7.815789472446824959e+01 7.042039338747304100e+01
5.896536371964485568e+01 7.894736794729512042e+01 7.043118367155273063e+01
5.896536371964485568e+01 7.973684195978871969e+01 7.045358711366077387e+01
5.896536371964485568e+01 8.052631507693392621e+01 7.047118483786437082e+01
5.896536371964485568e+01 8.131578961631230129e+01 7.049018140046086955e+01
5.896536371964485568e+01 8.210526317789341988e+01 7.049287396581343046e+01
5.896536371964485568e+01 8.289473704620083083e+01 7.055036465652972311e+01
5.896536371964485568e+01 8.368421047232754972e+01 7.059916257518676730e+01
5.896536371964485568e+01 8.447368445100589440e+01 7.064816510059603161e+01
5.896536371964485568e+01 8.526315774361262356e+01 7.066851125610816098e+01
5.896536371964485568e+01 8.605263164163862655e+01 7.070342389856932641e+01
5.896536371964485568e+01 8.684210507985865490e+01 7.070873194567576547e+01
5.896536371964485568e+01 8.763157902212792294e+01 7.070327593854199222e+01
5.896536371964485568e+01 8.842105263207000121e+01 7.070624680142549323e+01
5.896536371964485568e+01 8.921052633473587434e+01 7.067828846534627019e+01
5.512380654197464480e+01 7.894736652641193286e-01 7.003943664596994267e+01
5.512380654197464480e+01 1.578947367930001011e+00 7.000701073118680995e+01
5.512380654197464480e+01 2.368420977872076616e+00 7.005124442481229607e+01
5.512380654197464480e+01 3.157894920141340656e+00 7.011263374949902527e+01
5.512380654197464480e+01 3.947368358361377449e+00 7.014597391550535121e+01
5.512380654197464480e+01 4.736842256387371997e+00 7.014287581074955824e+01
5.512380654197464480e+01 5.526315548994111815e+00 7.008908297885585625e+01
5.512380654197464480e+01 6.315789527672447612e+00 7.008730013779830870e+01
5.512380654197464480e+01 7.105262953799172720e+00 7.015429435268185898e+01
5.512380654197464480e+01 7.894736822106574792e+00 7.019010753807424408e+01
5.512380654197464480e+01 8.684210383687709367e+00 7.021380316786866160e+01
5.512380654197464480e+01 9.473684923066079122e+00 7.022945984224628546e+01
5.512380654197464480e+01 1.026315804021128386e+01 7.026022035256129072e+01
5.512380654197464480e+01 1.105263205270487958e+01 7.021280713039413968e+01
5.512380654197464480e+01 1.184210527553174330e+01 7.020835862233548141e+01
5.512380654197464480e+01 1.263157785204498218e+01 7.021619269023244669e+01
5.512380654197464480e+01 1.342105232616219190e+01 7.019366959118775640e+01
5.512380654197464480e+01 1.421052666294080602e+01 7.014514541889275279e+01
5.512380654197464480e+01 1.499999989360930819e+01 7.011687977156765328e+01
5.512380654197464480e+01 1.578947361783115966e+01 7.010951350652266001e+01
5.512380654197464480e+01 1.657894659073297916e+01 7.006705466980906749e+01
5.512380654197464480e+01 1.736841916292352650e+01 7.005036286082906827e+01
5.512380654197464480e+01 1.815789408860959142e+01 7.003439418525653082e+01
5.512380654197464480e+01 1.894736854253368818e+01 7.001008054777946654e+01
5.512380654197464480e+01 1.973684239567033671e+01 7.004952588023485305e+01
5.512380654197464480e+01 2.052631646988038838e+01 7.007313526631014611e+01
5.512380654197464480e+01 2.131578876009536927e+01 7.014979801419286787e+01
5.512380654197464480e+01 2.210526285260279877e+01 7.019078532947611393e+01
5.512380654197464480e+01 2.289473572004411039e+01 7.025274469720369552e+01
5.512380654197464480e+01 2.368420986148022322e+01 7.035853913497118128e+01
5.512380654197464480e+01 2.447368447640081612e+01 7.034465000444015459e+01
5.512380654197464480e+01 2.526315739249692882e+01 7.041223905202969036e+01
5.512380654197464480e+01 2.605263310490014561e+01 7.046830382105508761e+01
5.512380654197464480e+01 2.684210491003450727e+01 7.048059427476329120e+01
5.512380654197464480e+01 2.763157925168302498e+01 7.051395924581089503e+01
5.512380654197464480e+01 2.842105187910176767e+01 7.049469762011381135e+01
5.512380654197464480e+01 2.921052732843206456e+01 7.047702940699679175e+01
5.512380654197464480e+01 3.000000082461344775e+01 7.046361794518276156e+01
5.512380654197464480e+01 3.078947211165050035e+01 7.043122964155332966e+01
5.512380654197464480e+01 3.157894777432792921e+01 7.039782772500785768e+01
5.512380654197464480e+01 3.236842025086797747e+01 7.034680301898185917e+01
5.512380654197464480e+01 3.315789371755550263e+01 7.030014120087975016e+01
5.512380654197464480e+01 3.394736708353536869e+01 7.025900310838989071e+01
5.512380654197464480e+01 3.473683947932686067e+01 7.025011098123968623e+01
5.512380654197464480e+01 3.552631601645720849e+01 7.022366975789304888e+01
5.512380654197464480e+01 3.631579015766080687e+01 7.021935263114221470e+01
5.512380654197464480e+01 3.710526288183825727e+01 7.021159908549321926e+01
5.512380654197464480e+01 3.789473761802329932e+01 7.016453505956974368e+01
5.512380654197464480e+01 3.868420966684608686e+01 7.019740534386096442e+01
5.512380654197464480e+01 3.947368533485720832e+01 7.015672743326865657e+01
5.512380654197464480e+01 4.026315766928073714e+01 7.019125465877891656e+01
5.512380654197464480e+01 4.105262962645296199e+01 7.019215009276337014e+01
5.512380654197464480e+01 4.184210657928029065e+01 7.022107462990777549e+01
5.512380654197464480e+01 4.263158013193491769e+01 7.024789766699325355e+01
5.512380654197464480e+01 4.342105253601766890e+01 7.029197948484613789e+01
5.512380654197464480e+01 4.421052388672472233e+01 7.033443041746454583e+01
5.512380654197464480e+01 4.500000000000000000e+01 7.038651845060388723e+01
5.512380654197464480e+01 4.578947611327527767e+01 7.042179055510206354e+01
5.512380654197464480e+01 4.657894746398233110e+01 7.045727956347167265e+01
5.512380654197464480e+01 4.736841986806508942e+01 7.049582922537001650e+01
5.512380654197464480e+01 4.815789342071971646e+01 7.052688545895244943e+01
5.512380654197464480e+01 4.894737037354705933e+01 7.053693017067593019e+01
5.512380654197464480e+01 4.973684233071926286e+01 7.056656945089173405e+01
5.512380654197464480e+01 5.052631466514279879e+01 7.059888033146398811e+01
5.512380654197464480e+01 5.131579033315389893e+01 7.059549872872406695e+01
5.512380654197464480e+01 5.210526238197672200e+01 7.060018570759920919e+01
5.512380654197464480e+01 5.289473711816174983e+01 7.059434411072800231e+01
5.512380654197464480e+01 5.368420984233916471e+01 7.061018817923257984e+01
5.512380654197464480e+01 5.447368398354278440e+01 7.055521628100621001e+01
5.512380654197464480e+01 5.526316052067313933e+01 7.053479656027030842e+01
5.512380654197464480e+01 5.605263291646463131e+01 7.051070633773429108e+01
5.512380654197464480e+01 5.684210628244449737e+01 7.047170616826213063e+01
5.512380654197464480e+01 5.763157974913201542e+01 7.041400618806312650e+01
5.512380654197464480e+01 5.842105222567207790e+01 7.036974511355060713e+01
5.512380654197464480e+01 5.921052788834949610e+01 7.033177735469529068e+01
5.512380654197464480e+01 5.999999917538654159e+01 7.030172117661555831e+01
5.512380654197464480e+01 6.078947267156793544e+01 7.023627406522302863e+01
5.512380654197464480e+01 6.157894812089823944e+01 7.019739377366965982e+01
5.512380654197464480e+01 6.236842074831697147e+01 7.016062593024275884e+01
5.512380654197464480e+01 6.315789508996548562e+01 7.012896821588503826e+01
5.512380654197464480e+01 6.394736689509985439e+01 7.008579618046792348e+01
5.512380654197464480e+01 6.473684260750307828e+01 7.003779941514159191e+01
5.512380654197464480e+01 6.552631552359919453e+01 7.002801428760380986e+01
