2.054956370044038039e+01 3.789473761802329932e+01 6.731474518737429191e-01
2.054956370044038039e+01 3.868420966684608686e+01 6.519525194547076685e-01
2.054956370044038039e+01 3.947368533485720832e+01 6.460952979502001536e-01
2.054956370044038039e+01 4.026315766928073714e+01 6.366419628216424265e-01
2.054956370044038039e+01 4.105262962645296199e+01 6.310330848554341898e-01
2.054956370044038039e+01 4.184210657928029065e+01 6.270777196627606020e-01
2.054956370044038039e+01 4.263158013193491769e+01 6.227872204924305155e-01
2.054956370044038039e+01 4.342105253601766890e+01 6.138258024157091652e-01
2.054956370044038039e+01 4.421052388672472233e+01 6.247785327100151553e-01
2.054956370044038039e+01 4.500000000000000000e+01 6.281151613696628333e-01
2.054956370044038039e+01 4.578947611327527767e+01 6.235349906233733641e-01
2.054956370044038039e+01 4.657894746398233110e+01 6.317829638186461816e-01
2.054956370044038039e+01 4.736841986806508942e+01 6.462135188917332851e-01
2.054956370044038039e+01 4.815789342071971646e+01 6.517155290006292345e-01
2.054956370044038039e+01 4.894737037354705933e+01 6.503675312005674503e-01
2.054956370044038039e+01 4.973684233071926286e+01 6.640111009658227204e-01
2.054956370044038039e+01 5.052631466514279879e+01 6.624964968946511767e-01
2.054956370044038039e+01 5.131579033315389893e+01 6.552581239781481992e-01
2.054956370044038039e+01 5.210526238197672200e+01 6.667917003953707233e-01
2.054956370044038039e+01 5.289473711816174983e+01 6.929880546787363649e-01
2.054956370044038039e+01 5.368420984233916471e+01 6.923340609937689294e-01
2.054956370044038039e+01 5.447368398354278440e+01 6.908293527147240098e-01
2.054956370044038039e+01 5.526316052067313933e+01 6.836943515964527540e-01
2.054956370044038039e+01 5.605263291646463131e+01 6.759951387128336764e-01
2.054956370044038039e+01 5.684210628244449737e+01 6.925296695572695782e-01
2.054956370044038039e+01 5.763157974913201542e+01 6.884924885536369832e-01
2.054956370044038039e+01 5.842105222567207790e+01 6.911874676635777481e-01
2.054956370044038039e+01 5.921052788834949610e+01 6.907314686107288715e-01
2.054956370044038039e+01 5.999999917538654159e+01 6.761579341738349624e-01
2.054956370044038039e+01 6.078947267156793544e+01 6.762965965744353047e-01
2.054956370044038039e+01 6.157894812089823944e+01 6.594802311593385147e-01
2.054956370044038039e+01 6.236842074831697147e+01 6.497875256336103078e-01
2.054956370044038039e+01 6.315789508996548562e+01 6.186809298486281028e-01
2.054956370044038039e+01 6.394736689509985439e+01 5.843336721416888535e-01
2.054956370044038039e+01 6.473684260750307828e+01 5.440849158164303701e-01
2.054956370044038039e+01 6.552631552359919453e+01 5.089609844648660397e-01
2.054956370044038039e+01 6.631579013851977322e+01 5.178262901582173505e-01
2.054956370044038039e+01 6.710526427995588961e+01 5.046043464126057643e-01
2.054956370044038039e+01 6.789473714739719412e+01 5.434461264429139016e-01
2.054956370044038039e+01 6.868421123990462718e+01 5.643153252501249550e-01
2.054956370044038039e+01 6.947368353011961517e+01 5.827315623436902792e-01
2.054956370044038039e+01 7.026315760432967750e+01 5.893952379866540525e-01
2.054956370044038039e+01 7.105263145746631892e+01 6.222646562513951540e-01
2.054956370044038039e+01 7.184210591139040503e+01 6.190882204467009764e-01
2.054956370044038039e+01 7.263158083707648416e+01 6.167715752984401778e-01
2.054956370044038039e+01 7.342105340926700308e+01 6.261056119738960257e-01
2.054956370044038039e+01 7.421052638216883679e+01 6.269152621475360121e-01
2.054956370044038039e+01 7.500000010639068648e+01 6.278517367204217159e-01
2.054956370044038039e+01 7.578947333705920641e+01 6.285257333267226798e-01
2.054956370044038039e+01 7.657894767383778856e+01 6.347066417129669791e-01
2.054956370044038039e+01 7.736842214795500183e+01 6.328706530669970798e-01
2.054956370044038039e+01 7.815789472446824959e+01 6.543628160029175689e-01
2.054956370044038039e+01 7.894736794729512042e+01 6.514939167094236927e-01
2.054956370044038039e+01 7.973684195978871969e+01 6.438419287480260378e-01
2.054956370044038039e+01 8.052631507693392621e+01 6.635293988143378119e-01
2.054956370044038039e+01 8.131578961631230129e+01 6.688231318263222480e-01
2.054956370044038039e+01 8.210526317789341988e+01 6.840910998750739935e-01
2.054956370044038039e+01 8.289473704620083083e+01 6.986272578451243609e-01
2.054956370044038039e+01 8.368421047232754972e+01 6.995795277120397948e-01
2.054956370044038039e+01 8.447368445100589440e+01 7.020912515865349590e-01
2.054956370044038039e+01 8.526315774361262356e+01 7.099047638062884191e-01
2.054956370044038039e+01 8.605263164163862655e+01 7.233416694161585170e-01
2.054956370044038039e+01 8.684210507985865490e+01 7.353325587763505089e-01
2.054956370044038039e+01 8.763157902212792294e+01 7.146609081141064301e-01
2.054956370044038039e+01 8.842105263207000121e+01 7.256406605571797952e-01
2.054956370044038039e+01 8.921052633473587434e+01 7.328830517638507125e-01
1.670790761768557076e+01 7.894736652641187735e-01 5.420257999159583395e-01
1.670790761768557076e+01 1.578947367930000345e+00 5.524408432907633726e-01
1.670790761768557076e+01 2.368420977872076616e+00 5.594569888958575987e-01
1.670790761768557076e+01 3.157894920141340656e+00 5.549009513988081288e-01
1.670790761768557076e+01 3.947368358361377005e+00 5.395424527795489311e-01
1.670790761768557076e+01 4.736842256387371108e+00 5.256734534198956865e-01
1.670790761768557076e+01 5.526315548994111815e+00 5.184737050639142142e-01
1.670790761768557076e+01 6.315789527672447612e+00 5.118418450660059404e-01
1.670790761768557076e+01 7.105262953799172720e+00 5.167287717594529761e-01
1.670790761768557076e+01 7.894736822106574792e+00 5.106095206485828930e-01
1.670790761768557076e+01 8.684210383687709367e+00 5.389557996878481250e-01
1.670790761768557076e+01 9.473684923066079122e+00 5.350732811747038742e-01
1.670790761768557076e+01 1.026315804021128386e+01 5.523630891510356022e-01
1.670790761768557076e+01 1.105263205270487958e+01 5.541189406464076539e-01
1.670790761768557076e+01 1.184210527553174330e+01 5.703752288535833825e-01
1.670790761768557076e+01 1.263157785204498218e+01 5.841126380649256378e-01
1.670790761768557076e+01 1.342105232616219190e+01 5.885498153389532305e-01
1.670790761768557076e+01 1.421052666294080602e+01 5.891017716591431252e-01
1.670790761768557076e+01 1.499999989360930819e+01 6.198962081836929539e-01
1.670790761768557076e+01 1.578947361783115966e+01 6.244153802535844511e-01
1.670790761768557076e+01 1.657894659073297916e+01 6.549696437899096280e-01
1.670790761768557076e+01 1.736841916292352650e+01 6.556361391217939705e-01
1.670790761768557076e+01 1.815789408860959142e+01 6.918345662571412369e-01
1.670790761768557076e+01 1.894736854253368818e+01 7.109532627778316627e-01
1.670790761768557076e+01 1.973684239567033671e+01 7.282826067146385141e-01
1.670790761768557076e+01 2.052631646988038838e+01 7.665117951106731331e-01
1.670790761768557076e+01 2.131578876009536927e+01 7.802516119666698113e-01
1.670790761768557076e+01 2.210526285260279877e+01 8.180498407027473329e-01
1.670790761768557076e+01 2.289473572004410329e+01 8.194985800939734721e-01
1.670790761768557076e+01 2.368420986148021612e+01 8.393041139006224283e-01
1.670790761768557076e+01 2.447368447640081612e+01 8.432260333515894102e-01
1.670790761768557076e+01 2.526315739249692527e+01 8.687596697131730883e-01
1.670790761768557076e+01 2.605263310490012785e+01 8.852903147470581047e-01
1.670790761768557076e+01 2.684210491003450727e+01 8.823411916389041210e-01
1.670790761768557076e+01 2.763157925168300721e+01 8.864983172170801673e-01
1.670790761768557076e+01 2.842105187910176411e+01 8.847225361786990039e-01
1.670790761768557076e+01 2.921052732843206101e+01 8.794100121626325928e-01
1.670790761768557076e+01 3.000000082461344775e+01 8.651389522727102044e-01
1.670790761768557076e+01 3.078947211165049680e+01 8.543928232232017583e-01
1.670790761768557076e+01 3.157894777432792921e+01 8.264847484402435551e-01
1.670790761768557076e+01 3.236842025086797037e+01 8.213889021090844400e-01
1.670790761768557076e+01 3.315789371755550263e+01 7.942243682928841197e-01
1.670790761768557076e+01 3.394736708353536869e+01 7.878324159407643634e-01
1.670790761768557076e+01 3.473683947932686067e+01 7.628707688217598593e-01
1.670790761768557076e+01 3.552631601645720849e+01 7.344051844991408284e-01
1.670790761768557076e+01 3.631579015766080687e+01 7.224561987209531244e-01
1.670790761768557076e+01 3.710526288183825017e+01 7.028918887850299502e-01
1.670790761768557076e+01 3.789473761802328511e+01 6.818305026461739526e-01
1.670790761768557076e+01 3.868420966684608686e+01 6.723469335964971094e-01
1.670790761768557076e+01 3.947368533485720121e+01 6.714114227144785119e-01
1.670790761768557076e+01 4.026315766928073714e+01 6.517865219134190147e-01
1.670790761768557076e+01 4.105262962645294067e+01 6.388040912993223630e-01
1.670790761768557076e+01 4.184210657928028354e+01 6.386966314379264320e-01
1.670790761768557076e+01 4.263158013193491058e+01 6.290786622561105323e-01
1.670790761768557076e+01 4.342105253601766890e+01 6.291823222216035294e-01
1.670790761768557076e+01 4.421052388672472233e+01 6.123417104614420348e-01
1.670790761768557076e+01 4.500000000000000000e+01 6.284443155706843642e-01
1.670790761768557076e+01 4.578947611327527767e+01 6.264923645482868286e-01
1.670790761768557076e+01 4.657894746398233821e+01 6.318658546342847959e-01
1.670790761768557076e+01 4.736841986806508942e+01 6.285600722662508799e-01
1.670790761768557076e+01 4.815789342071971646e+01 6.265005553268931937e-01
1.670790761768557076e+01 4.894737037354705933e+01 6.469534312395737174e-01
1.670790761768557076e+01 4.973684233071926286e+01 6.445364025738543612e-01
1.670790761768557076e+01 5.052631466514279879e+01 6.493712712633775697e-01
1.670790761768557076e+01 5.131579033315391314e+01 6.521473505466748311e-01
1.670790761768557076e+01 5.210526238197672200e+01 6.630086296896717801e-01
1.670790761768557076e+01 5.289473711816174983e+01 6.682736220741407607e-01
1.670790761768557076e+01 5.368420984233917892e+01 6.885771223913554895e-01
1.670790761768557076e+01 5.447368398354278440e+01 6.847870424733905059e-01
1.670790761768557076e+01 5.526316052067313933e+01 6.891173438144183594e-01
1.670790761768557076e+01 5.605263291646463841e+01 6.790698109578644504e-01
1.670790761768557076e+01 5.684210628244449737e+01 6.777661314916398894e-01
1.670790761768557076e+01 5.763157974913203674e+01 6.848424800200553220e-01
1.670790761768557076e+01 5.842105222567207790e+01 6.792799287449545753e-01
1.670790761768557076e+01 5.921052788834951031e+01 6.858899223319080418e-01
1.670790761768557076e+01 5.999999917538656291e+01 6.725959353256361073e-01
1.670790761768557076e+01 6.078947267156793544e+01 6.588706386857309250e-01
1.670790761768557076e+01 6.157894812089823944e+01 6.505411538445369235e-01
1.670790761768557076e+01 6.236842074831698568e+01 6.466321940980956917e-01
1.670790761768557076e+01 6.315789508996548562e+01 5.957955558740750668e-01
1.670790761768557076e+01 6.394736689509985439e+01 5.655171926938180604e-01
1.670790761768557076e+01 6.473684260750307828e+01 5.256255160017371253e-01
1.670790761768557076e+01 6.552631552359919453e+01 5.108479054933900976e-01
1.670790761768557076e+01 6.631579013851978743e+01 5.326593694991227368e-01
1.670790761768557076e+01 6.710526427995588961e+01 5.005746498850222048e-01
1.670790761768557076e+01 6.789473714739719412e+01 5.298439957382524712e-01
1.670790761768557076e+01 6.868421123990462718e+01 5.508990466858180168e-01
1.670790761768557076e+01 6.947368353011961517e+01 5.509390936863977073e-01
1.670790761768557076e+01 7.026315760432967750e+01 5.839101680619230850e-01
1.670790761768557076e+01 7.105263145746631892e+01 5.990801112611811030e-01
1.670790761768557076e+01 7.184210591139040503e+01 6.096817169481424381e-01
1.670790761768557076e+01 7.263158083707648416e+01 6.115412977665619643e-01
1.670790761768557076e+01 7.342105340926700308e+01 6.243578526609733226e-01
1.670790761768557076e+01 7.421052638216883679e+01 6.176514439687488256e-01
1.670790761768557076e+01 7.500000010639068648e+01 6.297009199486054420e-01
1.670790761768557076e+01 7.578947333705920641e+01 6.307121257446454132e-01
1.670790761768557076e+01 7.657894767383778856e+01 6.262614569120448227e-01
1.670790761768557076e+01 7.736842214795500183e+01 6.267675714234393070e-01
1.670790761768557076e+01 7.815789472446824959e+01 6.351922653690984522e-01
1.670790761768557076e+01 7.894736794729512042e+01 6.428573686517580210e-01
1.670790761768557076e+01 7.973684195978871969e+01 6.422152736455364330e-01
1.670790761768557076e+01 8.052631507693392621e+01 6.624482125162585167e-01
1.670790761768557076e+01 8.131578961631230129e+01 6.584151792359280719e-01
1.670790761768557076e+01 8.210526317789341988e+01 6.673252670232115991e-01
1.670790761768557076e+01 8.289473704620083083e+01 6.760312322151900144e-01
1.670790761768557076e+01 8.368421047232754972e+01 6.865994703171640623e-01
1.670790761768557076e+01 8.447368445100589440e+01 6.952444275643780980e-01
1.670790761768557076e+01 8.526315774361262356e+01 7.025326032979977153e-01
1.670790761768557076e+01 8.605263164163862655e+01 6.968970249549378826e-01
1.670790761768557076e+01 8.684210507985865490e+01 7.085600028632477176e-01
1.670790761768557076e+01 8.763157902212792294e+01 7.023831394002582051e-01
1.670790761768557076e+01 8.842105263207000121e+01 6.980304708214821741e-01
1.670790761768557076e+01 8.921052633473587434e+01 7.000368984446289078e-01
1.286634283193193440e+01 7.894736652641187735e-01 5.426480504182474851e-01
1.286634283193193440e+01 1.578947367930000345e+00 5.486360061138716437e-01
1.286634283193193440e+01 2.368420977872076616e+00 5.682483161552389639e-01
1.286634283193193440e+01 3.157894920141340656e+00 5.536722788843662091e-01
1.286634283193193440e+01 3.947368358361377005e+00 5.296742230116068262e-01
1.286634283193193440e+01 4.736842256387371108e+00 5.021135565879184526e-01
1.286634283193193440e+01 5.526315548994111815e+00 5.059901186752903124e-01
1.286634283193193440e+01 6.315789527672447612e+00 5.108226358168121983e-01
1.286634283193193440e+01 7.105262953799172720e+00 5.170128841995552671e-01
1.286634283193193440e+01 7.894736822106574792e+00 5.077091732288486758e-01
1.286634283193193440e+01 8.684210383687709367e+00 5.221042564676928732e-01
1.286634283193193440e+01 9.473684923066079122e+00 5.158417961949766095e-01
1.286634283193193440e+01 1.026315804021128386e+01 5.594946704701689866e-01
1.286634283193193440e+01 1.105263205270487958e+01 5.677267327137565101e-01
1.286634283193193440e+01 1.184210527553174330e+01 5.900019034093849646e-01
1.286634283193193440e+01 1.263157785204498218e+01 5.790873447525526352e-01
1.286634283193193440e+01 1.342105232616219190e+01 5.959014974441174672e-01
1.286634283193193440e+01 1.421052666294080602e+01 5.991776510109292353e-01
1.286634283193193440e+01 1.499999989360930819e+01 6.328271537204183117e-01
1.286634283193193440e+01 1.578947361783115966e+01 6.504328601894973083e-01
1.286634283193193440e+01 1.657894659073297916e+01 6.671904688118172055e-01
1.286634283193193440e+01 1.736841916292352650e+01 6.652347319525691027e-01
1.286634283193193440e+01 1.815789408860959142e+01 6.962373847099256885e-01
1.286634283193193440e+01 1.894736854253368818e+01 7.254373332218796433e-01
1.286634283193193440e+01 1.973684239567033671e+01 7.628773989233155195e-01
1.286634283193193440e+01 2.052631646988038838e+01 7.845308499181481432e-01
1.286634283193193440e+01 2.131578876009536927e+01 8.080743550821801735e-01
1.286634283193193440e+01 2.210526285260279877e+01 8.230378787627246062e-01
1.286634283193193440e+01 2.289473572004410329e+01 8.450673555284963223e-01
1.286634283193193440e+01 2.368420986148021612e+01 8.555879379309292432e-01
1.286634283193193440e+01 2.447368447640081612e+01 8.775316241868249545e-01
1.286634283193193440e+01 2.526315739249692527e+01 8.766767517998219628e-01
1.286634283193193440e+01 2.605263310490012785e+01 8.942669381076691071e-01
1.286634283193193440e+01 2.684210491003450727e+01 9.025778729981688286e-01
1.286634283193193440e+01 2.763157925168300721e+01 9.149051389674576207e-01
1.286634283193193440e+01 2.842105187910176411e+01 9.054508869831462414e-01
1.286634283193193440e+01 2.921052732843206101e+01 8.973611009159832008e-01
1.286634283193193440e+01 3.000000082461344775e+01 8.830315632707166351e-01
1.286634283193193440e+01 3.078947211165049680e+01 8.480081464220186049e-01
1.286634283193193440e+01 3.157894777432792921e+01 8.355330399492683080e-01
1.286634283193193440e+01 3.236842025086797037e+01 8.253281894827113607e-01
1.286634283193193440e+01 3.315789371755550263e+01 8.171114803444843311e-01
1.286634283193193440e+01 3.394736708353536869e+01 7.912964900311609817e-01
1.286634283193193440e+01 3.473683947932686067e+01 7.686483110377922978e-01
1.286634283193193440e+01 3.552631601645720849e+01 7.466483882203276412e-01
1.286634283193193440e+01 3.631579015766080687e+01 7.254572654705203627e-01
1.286634283193193440e+01 3.710526288183825017e+01 7.120710189933803225e-01
1.286634283193193440e+01 3.789473761802328511e+01 6.958687623996183680e-01
1.286634283193193440e+01 3.868420966684608686e+01 6.752264115054540383e-01
1.286634283193193440e+01 3.947368533485720121e+01 6.672291059102269939e-01
1.286634283193193440e+01 4.026315766928073714e+01 6.657022208455585233e-01
1.286634283193193440e+01 4.105262962645294067e+01 6.544226237357726461e-01
1.286634283193193440e+01 4.184210657928028354e+01 6.425756341487756096e-01
1.286634283193193440e+01 4.263158013193491058e+01 6.425118683566004574e-01
1.286634283193193440e+01 4.342105253601766890e+01 6.142991539941520251e-01
1.286634283193193440e+01 4.421052388672472233e+01 6.154900458291547860e-01
1.286634283193193440e+01 4.500000000000000000e+01 6.125022752306429341e-01
1.286634283193193440e+01 4.578947611327527767e+01 6.086773241246643540e-01
1.286634283193193440e+01 4.657894746398233821e+01 6.128451815769889732e-01
1.286634283193193440e+01 4.736841986806508942e+01 6.170339616321116605e-01
1.286634283193193440e+01 4.815789342071971646e+01 6.212985632842886741e-01
1.286634283193193440e+01 4.894737037354705933e+01 6.176510789973331805e-01
1.286634283193193440e+01 4.973684233071926286e+01 6.262602542830401076e-01
1.286634283193193440e+01 5.052631466514279879e+01 6.275396541284798957e-01
1.286634283193193440e+01 5.131579033315391314e+01 6.380420016345813572e-01
1.286634283193193440e+01 5.210526238197672200e+01 6.416263904123247208e-01
1.286634283193193440e+01 5.289473711816174983e+01 6.698698630152601918e-01
1.286634283193193440e+01 5.368420984233917892e+01 6.686237290715905113e-01
1.286634283193193440e+01 5.447368398354278440e+01 6.643717569303649872e-01
1.286634283193193440e+01 5.526316052067313933e+01 6.779731179448285072e-01
1.286634283193193440e+01 5.605263291646463841e+01 6.728557460627306863e-01
1.286634283193193440e+01 5.684210628244449737e+01 6.730031117121249018e-01
1.286634283193193440e+01 5.763157974913203674e+01 6.726559090203999558e-01
1.286634283193193440e+01 5.842105222567207790e+01 6.773385001289079499e-01
1.286634283193193440e+01 5.921052788834951031e+01 6.818798518778528273e-01
1.286634283193193440e+01 5.999999917538656291e+01 6.773390136416789220e-01
1.286634283193193440e+01 6.078947267156793544e+01 6.646822052640948275e-01
1.286634283193193440e+01 6.157894812089823944e+01 6.451532406326807578e-01
1.286634283193193440e+01 6.236842074831698568e+01 6.222949982774359512e-01
1.286634283193193440e+01 6.315789508996548562e+01 5.870884661192091736e-01
1.286634283193193440e+01 6.394736689509985439e+01 5.640385397650136134e-01
1.286634283193193440e+01 6.473684260750307828e+01 5.202679483277355965e-01
1.286634283193193440e+01 6.552631552359919453e+01 5.156105149816715416e-01
1.286634283193193440e+01 6.631579013851978743e+01 5.334539954191603872e-01
1.286634283193193440e+01 6.710526427995588961e+01 5.232496180384623718e-01
1.286634283193193440e+01 6.789473714739719412e+01 5.038548763622231474e-01
1.286634283193193440e+01 6.868421123990462718e+01 5.215862867296368055e-01
1.286634283193193440e+01 6.947368353011961517e+01 5.530951364548171156e-01
1.286634283193193440e+01 7.026315760432967750e+01 5.786018285270961847e-01
1.286634283193193440e+01 7.105263145746631892e+01 5.927973212200803310e-01
1.286634283193193440e+01 7.184210591139040503e+01 6.033820209443802041e-01
1.286634283193193440e+01 7.263158083707648416e+01 6.120960620486859405e-01
1.286634283193193440e+01 7.342105340926700308e+01 6.148630796609078075e-01
1.286634283193193440e+01 7.421052638216883679e+01 6.144708504420899331e-01
1.286634283193193440e+01 7.500000010639068648e+01 6.181204559316217928e-01
1.286634283193193440e+01 7.578947333705920641e+01 6.233961161083808600e-01
1.286634283193193440e+01 7.657894767383778856e+01 6.196885100243344491e-01
1.286634283193193440e+01 7.736842214795500183e+01 6.233992056100186030e-01
1.286634283193193440e+01 7.815789472446824959e+01 6.297752097129377669e-01
1.286634283193193440e+01 7.894736794729512042e+01 6.376856476923042916e-01
1.286634283193193440e+01 7.973684195978871969e+01 6.492276609702171131e-01
1.286634283193193440e+01 8.052631507693392621e+01 6.345959910375083002e-01
1.286634283193193440e+01 8.131578961631230129e+01 6.359178861463292698e-01
1.286634283193193440e+01 8.210526317789341988e+01 6.588231647202981156e-01
1.286634283193193440e+01 8.289473704620083083e+01 6.684318863090807916e-01
1.286634283193193440e+01 8.368421047232754972e+01 6.771880936317988819e-01
1.286634283193193440e+01 8.447368445100589440e+01 6.717469529438377940e-01
1.286634283193193440e+01 8.526315774361262356e+01 6.935164723494641192e-01
1.286634283193193440e+01 8.605263164163862655e+01 6.928955561368814742e-01
1.286634283193193440e+01 8.684210507985865490e+01 6.885725072733331897e-01
1.286634283193193440e+01 8.763157902212792294e+01 6.898351132011784070e-01
1.286634283193193440e+01 8.842105263207000121e+01 6.838918128499464899e-01
1.286634283193193440e+01 8.921052633473587434e+01 6.922814665029920489e-01
9.024778046178479229e+00 7.894736652641187735e-01 5.487363500890687362e-01
9.024778046178479229e+00 1.578947367930000345e+00 5.494823176145329224e-01
9.024778046178479229e+00 2.368420977872076616e+00 5.438278343942553050e-01
9.024778046178479229e+00 3.157894920141340656e+00 5.305444014900260186e-01
9.024778046178479229e+00 3.947368358361377005e+00 5.006624796053740223e-01
9.024778046178479229e+00 4.736842256387371108e+00 5.182620516727052262e-01
9.024778046178479229e+00 5.526315548994111815e+00 5.202617808285676659e-01
9.024778046178479229e+00 6.315789527672447612e+00 5.284765609044594914e-01
9.024778046178479229e+00 7.105262953799172720e+00 5.383185860533463707e-01
9.024778046178479229e+00 7.894736822106574792e+00 5.087104951244888484e-01
9.024778046178479229e+00 8.684210383687709367e+00 5.219798692958410591e-01
9.024778046178479229e+00 9.473684923066079122e+00 5.524818977980504586e-01
9.024778046178479229e+00 1.026315804021128386e+01 5.681930071132612614e-01
9.024778046178479229e+00 1.105263205270487958e+01 5.736598919885916859e-01
9.024778046178479229e+00 1.184210527553174330e+01 5.795161186486561533e-01
9.024778046178479229e+00 1.263157785204498218e+01 6.119132780248079939e-01
9.024778046178479229e+00 1.342105232616219190e+01 6.091046808978820559e-01
9.024778046178479229e+00 1.421052666294080602e+01 6.224790334522903867e-01
9.024778046178479229e+00 1.499999989360930819e+01 6.311965899824701909e-01
9.024778046178479229e+00 1.578947361783115966e+01 6.534894783888589576e-01
9.024778046178479229e+00 1.657894659073297916e+01 6.740481155611190989e-01
9.024778046178479229e+00 1.736841916292352650e+01 6.669814754263809764e-01
9.024778046178479229e+00 1.815789408860959142e+01 6.937064873690399480e-01
9.024778046178479229e+00 1.894736854253368818e+01 7.282262028195534143e-01
9.024778046178479229e+00 1.973684239567033671e+01 7.542559336071310572e-01
9.024778046178479229e+00 2.052631646988038838e+01 7.757745786993873738e-01
9.024778046178479229e+00 2.131578876009536927e+01 8.075127084720654658e-01
9.024778046178479229e+00 2.210526285260279877e+01 8.263934540385569072e-01
9.024778046178479229e+00 2.289473572004410329e+01 8.464750273828225424e-01
9.024778046178479229e+00 2.368420986148021612e+01 8.643470600333521547e-01
9.024778046178479229e+00 2.447368447640081612e+01 8.880816774661436375e-01
9.024778046178479229e+00 2.526315739249692527e+01 9.005922986228931393e-01
9.024778046178479229e+00 2.605263310490012785e+01 9.139310438203283038e-01
9.024778046178479229e+00 2.684210491003450727e+01 9.281648554684732710e-01
9.024778046178479229e+00 2.763157925168300721e+01 9.123646413876385086e-01
9.024778046178479229e+00 2.842105187910176411e+01 9.177544841547520260e-01
9.024778046178479229e+00 2.921052732843206101e+01 9.096681118389586818e-01
9.024778046178479229e+00 3.000000082461344775e+01 8.904350827984233163e-01
9.024778046178479229e+00 3.078947211165049680e+01 8.645286270035308362e-01
9.024778046178479229e+00 3.157894777432792921e+01 8.425969409698921275e-01
9.024778046178479229e+00 3.236842025086797037e+01 8.235145379057107196e-01
9.024778046178479229e+00 3.315789371755550263e+01 8.014725059956566700e-01
9.024778046178479229e+00 3.394736708353536869e+01 7.871900795594291012e-01
9.024778046178479229e+00 3.473683947932686067e+01 7.610573316034259239e-01
9.024778046178479229e+00 3.552631601645720849e+01 7.345348065693341200e-01
9.024778046178479229e+00 3.631579015766080687e+01 7.195478445249783306e-01
9.024778046178479229e+00 3.710526288183825017e+01 7.034707589116319104e-01
9.024778046178479229e+00 3.789473761802328511e+01 6.812380391946650793e-01
9.024778046178479229e+00 3.868420966684608686e+01 6.659804819891312899e-01
9.024778046178479229e+00 3.947368533485720121e+01 6.804951716497884551e-01
9.024778046178479229e+00 4.026315766928073714e+01 6.572232750159242576e-01
9.024778046178479229e+00 4.105262962645294067e+01 6.417750990998323246e-01
9.024778046178479229e+00 4.184210657928028354e+01 6.356764083320914915e-01
9.024778046178479229e+00 4.263158013193491058e+01 6.186251950723913318e-01
9.024778046178479229e+00 4.342105253601766890e+01 5.960508183507964297e-01
9.024778046178479229e+00 4.421052388672472233e+01 5.991959523906749130e-01
9.024778046178479229e+00 4.500000000000000000e+01 6.017220783383046001e-01
9.024778046178479229e+00 4.578947611327527767e+01 5.959244701913583020e-01
9.024778046178479229e+00 4.657894746398233821e+01 6.086951327030926118e-01
9.024778046178479229e+00 4.736841986806508942e+01 6.027126528088927460e-01
9.024778046178479229e+00 4.815789342071971646e+01 6.068066309308183248e-01
9.024778046178479229e+00 4.894737037354705933e+01 6.001913254082764659e-01
9.024778046178479229e+00 4.973684233071926286e+01 5.974150438878381708e-01
9.024778046178479229e+00 5.052631466514279879e+01 6.133749424704177944e-01
9.024778046178479229e+00 5.131579033315391314e+01 6.107857465686516996e-01
9.024778046178479229e+00 5.210526238197672200e+01 6.259355108491093667e-01
9.024778046178479229e+00 5.289473711816174983e+01 6.361156140673082104e-01
9.024778046178479229e+00 5.368420984233917892e+01 6.420986199146189177e-01
9.024778046178479229e+00 5.447368398354278440e+01 6.518819488908422777e-01
9.024778046178479229e+00 5.526316052067313933e+01 6.583699581377856491e-01
9.024778046178479229e+00 5.605263291646463841e+01 6.596674228419586727e-01
9.024778046178479229e+00 5.684210628244449737e+01 6.580606476633327206e-01
9.024778046178479229e+00 5.763157974913203674e+01 6.644361481285462334e-01
9.024778046178479229e+00 5.842105222567207790e+01 6.676495098317336563e-01
9.024778046178479229e+00 5.921052788834951031e+01 6.625750046081732014e-01
9.024778046178479229e+00 5.999999917538656291e+01 6.733917546540684196e-01
9.024778046178479229e+00 6.078947267156793544e+01 6.489787871108014805e-01
9.024778046178479229e+00 6.157894812089823944e+01 6.400738699814925159e-01
9.024778046178479229e+00 6.236842074831698568e+01 6.159326786527308251e-01
9.024778046178479229e+00 6.315789508996548562e+01 5.956122731272537330e-01
9.024778046178479229e+00 6.394736689509985439e+01 5.616815862784955149e-01
9.024778046178479229e+00 6.473684260750307828e+01 5.022089899002164515e-01
9.024778046178479229e+00 6.552631552359919453e+01 5.355453262398183201e-01
9.024778046178479229e+00 6.631579013851978743e+01 5.446012738243519724e-01
9.024778046178479229e+00 6.710526427995588961e+01 5.253853814738029815e-01
9.024778046178479229e+00 6.789473714739719412e+01 5.047953513895279132e-01
9.024778046178479229e+00 6.868421123990462718e+01 5.186975074707806943e-01
9.024778046178479229e+00 6.947368353011961517e+01 5.372297588140969582e-01
9.024778046178479229e+00 7.026315760432967750e+01 5.700175779319900382e-01
9.024778046178479229e+00 7.105263145746631892e+01 5.877143105400620682e-01
9.024778046178479229e+00 7.184210591139040503e+01 5.873212560750719069e-01
9.024778046178479229e+00 7.263158083707648416e+01 5.889930212011518229e-01
9.024778046178479229e+00 7.342105340926700308e+01 5.983194023829538910e-01
9.024778046178479229e+00 7.421052638216883679e+01 5.939516285828542186e-01
9.024778046178479229e+00 7.500000010639068648e+01 6.139171168743641216e-01
9.024778046178479229e+00 7.578947333705920641e+01 6.104588827451984390e-01
9.024778046178479229e+00 7.657894767383778856e+01 6.129205855890671462e-01
9.024778046178479229e+00 7.736842214795500183e+01 6.199404926771483471e-01
9.024778046178479229e+00 7.815789472446824959e+01 6.152222557658156843e-01
9.024778046178479229e+00 7.894736794729512042e+01 6.302311506991806755e-01
9.024778046178479229e+00 7.973684195978871969e+01 6.247580499116963670e-01
9.024778046178479229e+00 8.052631507693392621e+01 6.217305939997673780e-01
9.024778046178479229e+00 8.131578961631230129e+01 6.226550750076178531e-01
9.024778046178479229e+00 8.210526317789341988e+01 6.352264563765079863e-01
9.024778046178479229e+00 8.289473704620083083e+01 6.310704699737649248e-01
9.024778046178479229e+00 8.368421047232754972e+01 6.585238840729528143e-01
9.024778046178479229e+00 8.447368445100589440e+01 6.569823600043919187e-01
9.024778046178479229e+00 8.526315774361262356e+01 6.665155766679675686e-01
9.024778046178479229e+00 8.605263164163862655e+01 6.666914972985287235e-01
9.024778046178479229e+00 8.684210507985865490e+01 6.632761359743248875e-01
9.024778046178479229e+00 8.763157902212792294e+01 6.807825495458424969e-01
9.024778046178479229e+00 8.842105263207000121e+01 6.535989597820537345e-01
9.024778046178479229e+00 8.921052633473587434e+01 6.573785550147617229e-01
5.183220868508268353e+00 7.894736652641187735e-01 5.270162695048080659e-01
5.183220868508268353e+00 1.578947367929999901e+00 5.230773541426773088e-01
5.183220868508268353e+00 2.368420977872076616e+00 5.302000610144174120e-01
5.183220868508268353e+00 3.157894920141340656e+00 5.123925762772589820e-01
5.183220868508268353e+00 3.947368358361377005e+00 5.117244565237536458e-01
5.183220868508268353e+00 4.736842256387371108e+00 5.411602808640023632e-01
5.183220868508268353e+00 5.526315548994111815e+00 5.685652193410866140e-01
5.183220868508268353e+00 6.315789527672447612e+00 5.462086984181342419e-01
5.183220868508268353e+00 7.105262953799172720e+00 5.381260585179069578e-01
5.183220868508268353e+00 7.894736822106574792e+00 5.109971878775684262e-01
5.183220868508268353e+00 8.684210383687709367e+00 5.239611445657256228e-01
5.183220868508268353e+00 9.473684923066079122e+00 5.383548411966134761e-01
5.183220868508268353e+00 1.026315804021128386e+01 5.588634556756110205e-01
5.183220868508268353e+00 1.105263205270487958e+01 5.725994972061032584e-01
5.183220868508268353e+00 1.184210527553174330e+01 5.886882419153933732e-01
5.183220868508268353e+00 1.263157785204498218e+01 6.001131989768925257e-01
5.183220868508268353e+00 1.342105232616219190e+01 5.973958419725823310e-01
5.183220868508268353e+00 1.421052666294080602e+01 6.166838347127282516e-01
5.183220868508268353e+00 1.499999989360930819e+01 6.229250240524364379e-01
5.183220868508268353e+00 1.578947361783115966e+01 6.464484198315314512e-01
5.183220868508268353e+00 1.657894659073297916e+01 6.458102196679236240e-01
5.183220868508268353e+00 1.736841916292352650e+01 6.734406569016615496e-01
5.183220868508268353e+00 1.815789408860959142e+01 6.620667133366110457e-01
5.183220868508268353e+00 1.894736854253368818e+01 7.094065716181646719e-01
5.183220868508268353e+00 1.973684239567033671e+01 7.396277342013921619e-01
5.183220868508268353e+00 2.052631646988038838e+01 7.601467200274181213e-01
5.183220868508268353e+00 2.131578876009536927e+01 7.816414184799619358e-01
5.183220868508268353e+00 2.210526285260279877e+01 8.196397435183062630e-01
5.183220868508268353e+00 2.289473572004410329e+01 8.419448041196220256e-01
5.183220868508268353e+00 2.368420986148021612e+01 8.561177939450275165e-01
5.183220868508268353e+00 2.447368447640081612e+01 8.812169112480781052e-01
5.183220868508268353e+00 2.526315739249692527e+01 8.866887750616962993e-01
5.183220868508268353e+00 2.605263310490012785e+01 8.990065163939154891e-01
5.183220868508268353e+00 2.684210491003450727e+01 9.261405842779714126e-01
5.183220868508268353e+00 2.763157925168300721e+01 9.309606102795212612e-01
5.183220868508268353e+00 2.842105187910176411e+01 9.148239704971772301e-01
5.183220868508268353e+00 2.921052732843206101e+01 8.944974874288489364e-01
5.183220868508268353e+00 3.000000082461344775e+01 8.818141029369374051e-01
5.183220868508268353e+00 3.078947211165049680e+01 8.567497697788649669e-01
5.183220868508268353e+00 3.157894777432792921e+01 8.422922601300454337e-01
5.183220868508268353e+00 3.236842025086797037e+01 7.968110797851845062e-01
5.183220868508268353e+00 3.315789371755550263e+01 7.777355452434011607e-01
5.183220868508268353e+00 3.394736708353536869e+01 7.627004804988608555e-01
5.183220868508268353e+00 3.473683947932686067e+01 7.393114102278982580e-01
5.183220868508268353e+00 3.552631601645720849e+01 7.085109490525109965e-01
5.183220868508268353e+00 3.631579015766080687e+01 6.891244537616927346e-01
5.183220868508268353e+00 3.710526288183825017e+01 6.640880569289409063e-01
5.183220868508268353e+00 3.789473761802328511e+01 6.535799917017229843e-01
5.183220868508268353e+00 3.868420966684608686e+01 6.416788337321583935e-01
5.183220868508268353e+00 3.947368533485720121e+01 6.314614066609458565e-01
5.183220868508268353e+00 4.026315766928073714e+01 6.310260261466917875e-01
5.183220868508268353e+00 4.105262962645294067e+01 6.194926765565380578e-01
5.183220868508268353e+00 4.184210657928028354e+01 6.090167940812295511e-01
5.183220868508268353e+00 4.263158013193491058e+01 5.800247531646038901e-01
5.183220868508268353e+00 4.342105253601766890e+01 5.635527502623368656e-01
5.183220868508268353e+00 4.421052388672472233e+01 5.538972066943008699e-01
5.183220868508268353e+00 4.500000000000000000e+01 5.435754653140234538e-01
5.183220868508268353e+00 4.578947611327527767e+01 5.621284806311345195e-01
5.183220868508268353e+00 4.657894746398233821e+01 5.508424198440544650e-01
5.183220868508268353e+00 4.736841986806508942e+01 5.431585101174537522e-01
5.183220868508268353e+00 4.815789342071971646e+01 5.622337612978717258e-01
5.183220868508268353e+00 4.894737037354705933e+01 5.513313612626504767e-01
5.183220868508268353e+00 4.973684233071926286e+01 5.544915078877958869e-01
5.183220868508268353e+00 5.052631466514279879e+01 5.582600147847152083e-01
5.183220868508268353e+00 5.131579033315391314e+01 5.625730571463588570e-01
5.183220868508268353e+00 5.210526238197672200e+01 5.789766594412038003e-01
5.183220868508268353e+00 5.289473711816174983e+01 6.037929792254184136e-01
5.183220868508268353e+00 5.368420984233917892e+01 6.105587157948981769e-01
5.183220868508268353e+00 5.447368398354278440e+01 6.159016480317333064e-01
5.183220868508268353e+00 5.526316052067313933e+01 6.204418763289997196e-01
5.183220868508268353e+00 5.605263291646463841e+01 6.182095802736278234e-01
5.183220868508268353e+00 5.684210628244449737e+01 6.254470949161516913e-01
5.183220868508268353e+00 5.763157974913203674e+01 6.253304082734195690e-01
5.183220868508268353e+00 5.842105222567207790e+01 6.388496662353555511e-01
5.183220868508268353e+00 5.921052788834951031e+01 6.516492019610599096e-01
5.183220868508268353e+00 5.999999917538656291e+01 6.501658053172075791e-01
5.183220868508268353e+00 6.078947267156793544e+01 6.142450485194398402e-01
5.183220868508268353e+00 6.157894812089823944e+01 6.026357376189872550e-01
5.183220868508268353e+00 6.236842074831698568e+01 5.967464620642404238e-01
5.183220868508268353e+00 6.315789508996548562e+01 5.522631798107333623e-01
5.183220868508268353e+00 6.394736689509985439e+01 5.271299014883569223e-01
5.183220868508268353e+00 6.473684260750307828e+01 5.245478421643400280e-01
5.183220868508268353e+00 6.552631552359919453e+01 5.618775428767084357e-01
5.183220868508268353e+00 6.631579013851978743e+01 5.597664426828797835e-01
5.183220868508268353e+00 6.710526427995588961e+01 5.515593778430581962e-01
5.183220868508268353e+00 6.789473714739719412e+01 5.284314031476388118e-01
5.183220868508268353e+00 6.868421123990462718e+01 5.004380112535489200e-01
5.183220868508268353e+00 6.947368353011961517e+01 5.069597613789094126e-01
5.183220868508268353e+00 7.026315760432967750e+01 5.399029252435406656e-01
5.183220868508268353e+00 7.105263145746631892e+01 5.524308126822795595e-01
5.183220868508268353e+00 7.184210591139040503e+01 5.625516385838033040e-01
5.183220868508268353e+00 7.263158083707648416e+01 5.860276156821947469e-01
5.183220868508268353e+00 7.342105340926700308e+01 5.802389228150182099e-01
5.183220868508268353e+00 7.421052638216883679e+01 5.905070605031081943e-01
5.183220868508268353e+00 7.500000010639068648e+01 5.968397290049581860e-01
5.183220868508268353e+00 7.578947333705920641e+01 5.894124580860988782e-01
5.183220868508268353e+00 7.657894767383778856e+01 5.939495472568705470e-01
5.183220868508268353e+00 7.736842214795500183e+01 5.826074129888567654e-01
5.183220868508268353e+00 7.815789472446824959e+01 5.825687676635860068e-01
5.183220868508268353e+00 7.894736794729512042e+01 5.870754869077652316e-01
5.183220868508268353e+00 7.973684195978871969e+01 5.930548447545144208e-01
5.183220868508268353e+00 8.052631507693392621e+01 5.970994549911976534e-01
5.183220868508268353e+00 8.131578961631230129e+01 5.982207333586471165e-01
5.183220868508268353e+00 8.210526317789341988e+01 6.146652052617636031e-01
5.183220868508268353e+00 8.289473704620083083e+01 6.143055671923960404e-01
5.183220868508268353e+00 8.368421047232754972e+01 6.311754573690401271e-01
5.183220868508268353e+00 8.447368445100589440e+01 6.257117169909418575e-01
5.183220868508268353e+00 8.526315774361262356e+01 6.387750934126331659e-01
5.183220868508268353e+00 8.605263164163862655e+01 6.332173553364047747e-01
5.183220868508268353e+00 8.684210507985865490e+01 6.406926050601232658e-01
5.183220868508268353e+00 8.763157902212792294e+01 6.274744334969657444e-01
5.183220868508268353e+00 8.842105263207000121e+01 6.208604776332310449e-01
5.183220868508268353e+00 8.921052633473587434e+01 6.288098694178557713e-01
1.341656082754810964e+00 7.894736652641185515e-01 5.259951141115102313e-01
1.341656082754810964e+00 1.578947367929999901e+00 5.306100808883068565e-01
1.341656082754810964e+00 2.368420977872076616e+00 5.257807032785343226e-01
1.341656082754810964e+00 3.157894920141340656e+00 5.364034225801999067e-01
1.341656082754810964e+00 3.947368358361377005e+00 5.521174861819041491e-01
1.341656082754810964e+00 4.736842256387371108e+00 5.847707772202376253e-01
1.341656082754810964e+00 5.526315548994111815e+00 6.027606696351566207e-01
1.341656082754810964e+00 6.315789527672447612e+00 5.806668348371293309e-01
1.341656082754810964e+00 7.105262953799172720e+00 5.805714440668519050e-01
1.341656082754810964e+00 7.894736822106574792e+00 5.465743448515700820e-01
1.341656082754810964e+00 8.684210383687709367e+00 5.065700768049262726e-01
1.341656082754810964e+00 9.473684923066079122e+00 5.095733409438663042e-01
1.341656082754810964e+00 1.026315804021128386e+01 5.112088472247159343e-01
1.341656082754810964e+00 1.105263205270487958e+01 5.469039087887446193e-01
1.341656082754810964e+00 1.184210527553174330e+01 5.527584613450233775e-01
1.341656082754810964e+00 1.263157785204498218e+01 5.580707952420084217e-01
1.341656082754810964e+00 1.342105232616219190e+01 5.565244035439421699e-01
1.341656082754810964e+00 1.421052666294080602e+01 5.705483533495111503e-01
1.341656082754810964e+00 1.499999989360930819e+01 5.823698331613007539e-01
1.341656082754810964e+00 1.578947361783115966e+01 5.763478247393255538e-01
1.341656082754810964e+00 1.657894659073297916e+01 5.845143721882873900e-01
1.341656082754810964e+00 1.736841916292352650e+01 5.967373481483009279e-01
1.341656082754810964e+00 1.815789408860959142e+01 6.214570824070272392e-01
1.341656082754810964e+00 1.894736854253368818e+01 6.464657669446801647e-01
1.341656082754810964e+00 1.973684239567033671e+01 6.795137158898977292e-01
1.341656082754810964e+00 2.052631646988038838e+01 7.027768590009255689e-01
1.341656082754810964e+00 2.131578876009536927e+01 7.332026741218480304e-01
1.341656082754810964e+00 2.210526285260279877e+01 7.694897520847941985e-01
1.341656082754810964e+00 2.289473572004410329e+01 7.878172251378962043e-01
1.341656082754810964e+00 2.368420986148021612e+01 8.053324332107699712e-01
1.341656082754810964e+00 2.447368447640081612e+01 8.342017793785390101e-01
1.341656082754810964e+00 2.526315739249692527e+01 8.618890790094483334e-01
1.341656082754810964e+00 2.605263310490012785e+01 8.626388006314590351e-01
1.341656082754810964e+00 2.684210491003450727e+01 8.821632608461854597e-01
1.341656082754810964e+00 2.763157925168300721e+01 8.790743444377753235e-01
1.341656082754810964e+00 2.842105187910176411e+01 8.852966473753569598e-01
1.341656082754810964e+00 2.921052732843206101e+01 8.695241826681462394e-01
1.341656082754810964e+00 3.000000082461344775e+01 8.264531926782009430e-01
1.341656082754810964e+00 3.078947211165049680e+01 8.025362594626304080e-01
1.341656082754810964e+00 3.157894777432792921e+01 7.715626434002526013e-01
1.341656082754810964e+00 3.236842025086797037e+01 7.456403050302022883e-01
1.341656082754810964e+00 3.315789371755550263e+01 7.210965053954283555e-01
1.341656082754810964e+00 3.394736708353536869e+01 6.977815203736088545e-01
1.341656082754810964e+00 3.473683947932686067e+01 6.749425769063035485e-01
1.341656082754810964e+00 3.552631601645720849e+01 6.421337257632468987e-01
1.341656082754810964e+00 3.631579015766080687e+01 6.234541129455409836e-01
1.341656082754810964e+00 3.710526288183825017e+01 5.965916513910627383e-01
1.341656082754810964e+00 3.789473761802328511e+01 5.849107395050219260e-01
1.341656082754810964e+00 3.868420966684608686e+01 5.715027013873237305e-01
1.341656082754810964e+00 3.947368533485720121e+01 5.644196176150858557e-01
1.341656082754810964e+00 4.026315766928073714e+01 5.401039600781704086e-01
1.341656082754810964e+00 4.105262962645294067e+01 5.329084924309124283e-01
1.341656082754810964e+00 4.184210657928028354e+01 5.138376403166140527e-01
1.341656082754810964e+00 4.263158013193491058e+01 5.067539348784484421e-01
1.341656082754810964e+00 4.342105253601766890e+01 5.203203470311307255e-01
1.341656082754810964e+00 4.421052388672472233e+01 5.275057351974409281e-01
1.341656082754810964e+00 4.500000000000000000e+01 5.160012325557812307e-01
1.341656082754810964e+00 4.578947611327527767e+01 5.107687546058105044e-01
1.341656082754810964e+00 4.657894746398233821e+01 5.255675969523680990e-01
1.341656082754810964e+00 4.736841986806508942e+01 5.282069040666546034e-01
1.341656082754810964e+00 4.815789342071971646e+01 5.216643753312102394e-01
1.341656082754810964e+00 4.894737037354705933e+01 5.272394306420585819e-01
1.341656082754810964e+00 4.973684233071926286e+01 5.143973458061634751e-01
1.341656082754810964e+00 5.052631466514279879e+01 5.244879018678457738e-01
1.341656082754810964e+00 5.131579033315391314e+01 5.081730468761693764e-01
1.341656082754810964e+00 5.210526238197672200e+01 5.009954157969064292e-01
1.341656082754810964e+00 5.289473711816174983e+01 5.275435885569601524e-01
1.341656082754810964e+00 5.368420984233917892e+01 5.383850644866815527e-01
1.341656082754810964e+00 5.447368398354278440e+01 5.599819185774734809e-01
1.341656082754810964e+00 5.526316052067313933e+01 5.552267587145526262e-01
1.341656082754810964e+00 5.605263291646463841e+01 5.629905772868207814e-01
1.341656082754810964e+00 5.684210628244449737e+01 5.588996335685096906e-01
1.341656082754810964e+00 5.763157974913203674e+01 5.689389247951777140e-01
1.341656082754810964e+00 5.842105222567207790e+01 5.841778624568182421e-01
1.341656082754810964e+00 5.921052788834951031e+01 5.822460658792631971e-01
1.341656082754810964e+00 5.999999917538656291e+01 5.814113263460651826e-01
1.341656082754810964e+00 6.078947267156793544e+01 5.765214475073715539e-01
1.341656082754810964e+00 6.157894812089823944e+01 5.668977742750639370e-01
1.341656082754810964e+00 6.236842074831698568e+01 5.403543760617959268e-01
1.341656082754810964e+00 6.315789508996548562e+01 5.144963016840601311e-01
1.341656082754810964e+00 6.394736689509985439e+01 5.279442182025176900e-01
1.341656082754810964e+00 6.473684260750307828e+01 5.658066227006148807e-01
1.341656082754810964e+00 6.552631552359919453e+01 6.168877275059817533e-01
1.341656082754810964e+00 6.631579013851978743e+01 6.127063868385360657e-01
1.341656082754810964e+00 6.710526427995588961e+01 5.986470980329423597e-01
1.341656082754810964e+00 6.789473714739719412e+01 5.807965179478709050e-01
1.341656082754810964e+00 6.868421123990462718e+01 5.474795900432717355e-01
1.341656082754810964e+00 6.947368353011961517e+01 5.329354200534636155e-01
1.341656082754810964e+00 7.026315760432967750e+01 5.069936717531083881e-01
1.341656082754810964e+00 7.105263145746631892e+01 5.087702424053802686e-01
1.341656082754810964e+00 7.184210591139040503e+01 5.119850363625215728e-01
1.341656082754810964e+00 7.263158083707648416e+01 5.157921607101189077e-01
1.341656082754810964e+00 7.342105340926700308e+01 5.179094407607575112e-01
1.341656082754810964e+00 7.421052638216883679e+01 5.407546474937023895e-01
1.341656082754810964e+00 7.500000010639068648e+01 5.463775022526052849e-01
1.341656082754810964e+00 7.578947333705920641e+01 5.475124015130384825e-01
1.341656082754810964e+00 7.657894767383778856e+01 5.497862816718543932e-01
1.341656082754810964e+00 7.736842214795500183e+01 5.503023866821372678e-01
1.341656082754810964e+00 7.815789472446824959e+01 5.269860603323872628e-01
1.341656082754810964e+00 7.894736794729512042e+01 5.407207088743581913e-01
1.341656082754810964e+00 7.973684195978871969e+01 5.498625994081037804e-01
1.341656082754810964e+00 8.052631507693392621e+01 5.555144597646393123e-01
1.341656082754810964e+00 8.131578961631230129e+01 5.588788667774551300e-01
1.341656082754810964e+00 8.210526317789341988e+01 5.566560024803922646e-01
1.341656082754810964e+00 8.289473704620083083e+01 5.660227455860238344e-01
1.341656082754810964e+00 8.368421047232754972e+01 5.766182115227463933e-01
1.341656082754810964e+00 8.447368445100589440e+01 5.887212332038758156e-01
1.341656082754810964e+00 8.526315774361262356e+01 5.781434659240959339e-01
1.341656082754810964e+00 8.605263164163862655e+01 5.825153000398379799e-01
1.341656082754810964e+00 8.684210507985865490e+01 5.707119397385906900e-01
1.341656082754810964e+00 8.763157902212792294e+01 5.705721273856023679e-01
1.341656082754810964e+00 8.842105263207000121e+01 5.689729946823348650e-01
1.341656082754810964e+00 8.921052633473587434e+01 5.672641922837673434e-01
8.954787342455618671e+01 2.992105273284320788e+02 5.294411085111586646e-01
8.573630731179265752e+01 2.992105273284320788e+02 5.194623779977646238e-01
8.192474880711253604e+01 2.992105273284320788e+02 5.161522659715643835e-01
7.811318269434902106e+01 2.992105273284320788e+02 5.061599538773199347e-01
7.430161658158550608e+01 2.992105273284320788e+02 5.070318475218423826e-01
8.954787342455618671e+01 2.984210518791016966e+02 5.257722545056074948e-01
8.573630731179265752e+01 2.984210518791016966e+02 5.066516049640620301e-01
8.192474880711253604e+01 2.984210518791016966e+02 5.018996596359606155e-01
7.811318269434902106e+01 2.984210518791016966e+02 5.013823425538991296e-01
