5.440000000000000000e+02 2.972477063999999913e+01 4.420000000000000040e-01
5.440000000000000000e+02 3.137614678999999995e+01 4.400000000000000022e-01
5.440000000000000000e+02 3.302752293999999722e+01 4.359999999999999987e-01
5.440000000000000000e+02 3.467889908000000077e+01 3.260000000000000120e-01
5.440000000000000000e+02 3.633027522999999803e+01 4.030000000000000249e-01
5.440000000000000000e+02 3.798165138000000240e+01 4.329999999999999960e-01
5.440000000000000000e+02 3.963302751999999884e+01 4.410000000000000031e-01
5.440000000000000000e+02 4.128440367000000322e+01 4.410000000000000031e-01
5.440000000000000000e+02 4.293577982000000048e+01 4.400000000000000022e-01
5.440000000000000000e+02 4.458715595999999692e+01 4.359999999999999987e-01
5.440000000000000000e+02 4.623853211000000130e+01 4.390000000000000013e-01
5.440000000000000000e+02 4.788990825999999856e+01 4.380000000000000004e-01
5.440000000000000000e+02 4.954128440000000211e+01 4.400000000000000022e-01
5.440000000000000000e+02 5.119266054999999938e+01 4.400000000000000022e-01
5.440000000000000000e+02 5.284403669999999664e+01 4.410000000000000031e-01
5.440000000000000000e+02 5.449541284000000019e+01 4.390000000000000013e-01
5.440000000000000000e+02 5.614678898999999745e+01 4.410000000000000031e-01
5.440000000000000000e+02 5.779816514000000183e+01 4.390000000000000013e-01
5.440000000000000000e+02 5.944954127999999827e+01 4.390000000000000013e-01
5.440000000000000000e+02 6.110091743000000264e+01 4.390000000000000013e-01
5.440000000000000000e+02 6.275229357999999991e+01 4.309999999999999942e-01
5.440000000000000000e+02 6.440366971999999635e+01 4.329999999999999960e-01
5.440000000000000000e+02 6.605504587000000072e+01 4.420000000000000040e-01
5.440000000000000000e+02 6.770642202000000509e+01 4.410000000000000031e-01
5.440000000000000000e+02 6.935779816999999525e+01 4.420000000000000040e-01
5.440000000000000000e+02 7.100917431000000590e+01 4.430000000000000049e-01
5.440000000000000000e+02 7.266055045999999606e+01 4.430000000000000049e-01
5.440000000000000000e+02 7.431192661000000044e+01 4.420000000000000040e-01
5.440000000000000000e+02 7.596330274999999688e+01 4.440000000000000058e-01
5.440000000000000000e+02 7.761467890000000125e+01 4.440000000000000058e-01
5.440000000000000000e+02 7.926605505000000562e+01 4.450000000000000067e-01
5.440000000000000000e+02 8.091743119000000206e+01 4.430000000000000049e-01
5.440000000000000000e+02 8.256880734000000643e+01 4.400000000000000022e-01
5.440000000000000000e+02 8.422018348999999660e+01 4.450000000000000067e-01
5.440000000000000000e+02 8.587155962999999304e+01 4.430000000000000049e-01
5.440000000000000000e+02 8.752293577999999741e+01 4.440000000000000058e-01
5.440000000000000000e+02 8.917431193000000178e+01 4.440000000000000058e-01
5.440000000000000000e+02 9.082568806999999822e+01 4.420000000000000040e-01
5.440000000000000000e+02 9.247706422000000259e+01 4.410000000000000031e-01
5.440000000000000000e+02 9.412844037000000696e+01 4.440000000000000058e-01
5.440000000000000000e+02 9.577981651000000340e+01 4.430000000000000049e-01
5.440000000000000000e+02 9.743119265999999357e+01 4.430000000000000049e-01
5.440000000000000000e+02 9.908256880999999794e+01 4.440000000000000058e-01
5.440000000000000000e+02 1.007339450000000056e+02 4.430000000000000049e-01
5.440000000000000000e+02 1.023853210999999988e+02 4.450000000000000067e-01
5.440000000000000000e+02 1.040366972000000061e+02 4.400000000000000022e-01
5.440000000000000000e+02 1.056880733999999933e+02 4.410000000000000031e-01
5.440000000000000000e+02 1.073394495000000006e+02 4.400000000000000022e-01
5.440000000000000000e+02 1.089908257000000020e+02 4.410000000000000031e-01
5.440000000000000000e+02 1.106422017999999952e+02 4.420000000000000040e-01
5.440000000000000000e+02 1.122935779999999966e+02 4.400000000000000022e-01
5.440000000000000000e+02 1.139449541000000039e+02 4.440000000000000058e-01
5.440000000000000000e+02 1.155963303000000053e+02 4.420000000000000040e-01
5.440000000000000000e+02 1.172477063999999984e+02 4.400000000000000022e-01
5.440000000000000000e+02 1.188990825999999998e+02 4.400000000000000022e-01
5.440000000000000000e+02 1.205504586999999930e+02 4.430000000000000049e-01
5.440000000000000000e+02 1.222018348999999944e+02 4.430000000000000049e-01
5.440000000000000000e+02 1.238532110000000017e+02 4.420000000000000040e-01
5.440000000000000000e+02 1.255045872000000031e+02 4.420000000000000040e-01
5.440000000000000000e+02 1.271559632999999963e+02 4.410000000000000031e-01
5.440000000000000000e+02 1.288073393999999894e+02 4.390000000000000013e-01
5.440000000000000000e+02 1.304587156000000050e+02 4.440000000000000058e-01
5.440000000000000000e+02 1.321100916999999981e+02 4.470000000000000084e-01
5.440000000000000000e+02 1.337614679000000137e+02 4.460000000000000075e-01
5.440000000000000000e+02 1.354128440000000069e+02 4.440000000000000058e-01
5.440000000000000000e+02 1.370642201999999941e+02 4.450000000000000067e-01
5.440000000000000000e+02 1.387155962999999872e+02 5.000000000000000000e-01
5.440000000000000000e+02 1.403669725000000028e+02 4.590000000000000191e-01
5.440000000000000000e+02 1.420183485999999959e+02 4.460000000000000075e-01
5.440000000000000000e+02 1.436697248000000116e+02 4.380000000000000004e-01
5.440000000000000000e+02 1.453211009000000047e+02 4.400000000000000022e-01
5.440000000000000000e+02 1.469724770999999919e+02 4.369999999999999996e-01
5.440000000000000000e+02 1.486238532000000134e+02 4.380000000000000004e-01
5.440000000000000000e+02 1.502752294000000006e+02 4.390000000000000013e-01
5.440000000000000000e+02 1.519266054999999938e+02 4.390000000000000013e-01
5.440000000000000000e+02 1.535779817000000094e+02 4.109999999999999765e-01
5.440000000000000000e+02 1.552293578000000025e+02 4.380000000000000004e-01
5.440000000000000000e+02 1.568807338999999956e+02 4.400000000000000022e-01
5.440000000000000000e+02 1.585321101000000112e+02 4.410000000000000031e-01
5.440000000000000000e+02 1.601834862000000044e+02 4.400000000000000022e-01
5.440000000000000000e+02 1.618348623999999916e+02 4.400000000000000022e-01
5.440000000000000000e+02 1.634862385000000131e+02 4.369999999999999996e-01
5.440000000000000000e+02 1.651376147000000003e+02 4.400000000000000022e-01
5.440000000000000000e+02 1.667889907999999934e+02 4.400000000000000022e-01
5.440000000000000000e+02 1.684403670000000091e+02 4.369999999999999996e-01
5.440000000000000000e+02 1.700917431000000022e+02 4.349999999999999978e-01
5.440000000000000000e+02 1.717431192999999894e+02 4.380000000000000004e-01
5.440000000000000000e+02 1.733944954000000109e+02 4.400000000000000022e-01
5.440000000000000000e+02 1.750458715999999981e+02 4.390000000000000013e-01
5.440000000000000000e+02 1.766972476999999913e+02 4.390000000000000013e-01
5.440000000000000000e+02 1.783486239000000069e+02 4.339999999999999969e-01
5.440000000000000000e+02 1.800000000000000000e+02 4.289999999999999925e-01
5.440000000000000000e+02 1.816513760999999931e+02 4.380000000000000004e-01
5.440000000000000000e+02 1.833027523000000087e+02 4.369999999999999996e-01
5.440000000000000000e+02 1.849541284000000019e+02 4.369999999999999996e-01
5.440000000000000000e+02 1.866055045999999891e+02 4.339999999999999969e-01
5.440000000000000000e+02 1.882568807000000106e+02 4.289999999999999925e-01
5.440000000000000000e+02 1.899082568999999978e+02 4.329999999999999960e-01
5.440000000000000000e+02 1.915596329999999909e+02 4.329999999999999960e-01
5.440000000000000000e+02 1.932110092000000066e+02 4.329999999999999960e-01
5.440000000000000000e+02 1.948623852999999997e+02 4.339999999999999969e-01
5.440000000000000000e+02 1.965137614999999869e+02 4.349999999999999978e-01
5.440000000000000000e+02 1.981651376000000084e+02 4.349999999999999978e-01
5.440000000000000000e+02 1.998165137999999956e+02 4.329999999999999960e-01
5.440000000000000000e+02 2.014678898999999888e+02 4.339999999999999969e-01
5.440000000000000000e+02 2.031192661000000044e+02 4.289999999999999925e-01
5.440000000000000000e+02 2.047706421999999975e+02 4.299999999999999933e-01
5.440000000000000000e+02 2.064220182999999906e+02 4.349999999999999978e-01
5.440000000000000000e+02 2.080733945000000062e+02 4.359999999999999987e-01
5.440000000000000000e+02 2.097247705999999994e+02 4.359999999999999987e-01
5.440000000000000000e+02 2.113761467999999866e+02 4.329999999999999960e-01
5.440000000000000000e+02 2.130275229000000081e+02 4.400000000000000022e-01
5.440000000000000000e+02 2.146788990999999953e+02 5.000000000000000000e-01
5.440000000000000000e+02 2.163302751999999884e+02 4.410000000000000031e-01
5.440000000000000000e+02 2.179816514000000041e+02 4.400000000000000022e-01
5.440000000000000000e+02 2.196330274999999972e+02 4.400000000000000022e-01
5.440000000000000000e+02 2.212844037000000128e+02 4.400000000000000022e-01
5.440000000000000000e+02 2.229357798000000059e+02 4.400000000000000022e-01
5.440000000000000000e+02 2.245871559999999931e+02 4.400000000000000022e-01
5.440000000000000000e+02 2.262385320999999863e+02 4.390000000000000013e-01
5.440000000000000000e+02 2.278899083000000019e+02 4.339999999999999969e-01
5.440000000000000000e+02 2.295412843999999950e+02 4.339999999999999969e-01
5.440000000000000000e+02 2.311926606000000106e+02 4.199999999999999845e-01
5.440000000000000000e+02 2.328440367000000037e+02 4.129999999999999782e-01
5.440000000000000000e+02 2.344954127999999969e+02 4.229999999999999871e-01
5.440000000000000000e+02 2.361467890000000125e+02 4.229999999999999871e-01
5.440000000000000000e+02 2.377981651000000056e+02 4.349999999999999978e-01
5.440000000000000000e+02 2.394495412999999928e+02 4.349999999999999978e-01
5.440000000000000000e+02 2.411009173999999859e+02 4.169999999999999818e-01
5.440000000000000000e+02 2.427522936000000016e+02 4.229999999999999871e-01
5.440000000000000000e+02 2.444036696999999947e+02 4.339999999999999969e-01
5.440000000000000000e+02 2.460550459000000103e+02 4.329999999999999960e-01
5.440000000000000000e+02 2.477064220000000034e+02 4.329999999999999960e-01
5.440000000000000000e+02 2.493577981999999906e+02 4.319999999999999951e-01
5.440000000000000000e+02 2.510091743000000122e+02 4.339999999999999969e-01
5.440000000000000000e+02 2.526605504999999994e+02 4.560000000000000164e-01
5.440000000000000000e+02 2.543119265999999925e+02 4.169999999999999818e-01
5.440000000000000000e+02 2.559633028000000081e+02 4.319999999999999951e-01
5.440000000000000000e+02 2.576146789000000012e+02 4.339999999999999969e-01
5.440000000000000000e+02 2.592660549999999944e+02 4.239999999999999880e-01
5.440000000000000000e+02 2.609174312000000100e+02 4.229999999999999871e-01
5.440000000000000000e+02 2.625688073000000031e+02 4.339999999999999969e-01
5.440000000000000000e+02 2.642201835000000187e+02 4.349999999999999978e-01
5.440000000000000000e+02 2.658715596000000119e+02 4.349999999999999978e-01
5.440000000000000000e+02 2.675229358000000275e+02 4.229999999999999871e-01
5.440000000000000000e+02 2.691743119000000206e+02 4.199999999999999845e-01
5.440000000000000000e+02 2.708256880999999794e+02 4.199999999999999845e-01
5.440000000000000000e+02 2.724770641999999725e+02 4.249999999999999889e-01
5.440000000000000000e+02 2.741284403999999881e+02 4.239999999999999880e-01
5.440000000000000000e+02 2.757798164999999813e+02 4.239999999999999880e-01
5.440000000000000000e+02 2.774311926999999969e+02 3.990000000000000213e-01
5.440000000000000000e+02 2.790825687999999900e+02 4.149999999999999800e-01
5.440000000000000000e+02 2.807339450000000056e+02 4.099999999999999756e-01
5.440000000000000000e+02 2.823853210999999988e+02 4.249999999999999889e-01
5.440000000000000000e+02 2.840366971999999919e+02 4.209999999999999853e-01
5.440000000000000000e+02 2.856880734000000075e+02 3.910000000000000142e-01
5.440000000000000000e+02 2.873394495000000006e+02 3.890000000000000124e-01
5.440000000000000000e+02 2.889908257000000162e+02 3.920000000000000151e-01
5.440000000000000000e+02 2.906422018000000094e+02 4.229999999999999871e-01
5.440000000000000000e+02 2.922935780000000250e+02 4.219999999999999862e-01
5.440000000000000000e+02 2.939449541000000181e+02 4.289999999999999925e-01
5.440000000000000000e+02 2.955963302999999769e+02 4.259999999999999898e-01
5.440000000000000000e+02 2.972477064000000269e+02 4.560000000000000164e-01
5.440000000000000000e+02 2.988990825999999856e+02 4.380000000000000004e-01
5.440000000000000000e+02 3.005504586999999788e+02 4.329999999999999960e-01
5.440000000000000000e+02 3.022018348999999944e+02 4.339999999999999969e-01
5.440000000000000000e+02 3.038532109999999875e+02 4.169999999999999818e-01
5.440000000000000000e+02 3.055045872000000031e+02 4.209999999999999853e-01
5.440000000000000000e+02 3.071559632999999963e+02 4.309999999999999942e-01
5.440000000000000000e+02 3.088073393999999894e+02 4.189999999999999836e-01
5.440000000000000000e+02 3.104587156000000050e+02 4.099999999999999756e-01
5.440000000000000000e+02 3.121100916999999981e+02 4.279999999999999916e-01
5.440000000000000000e+02 3.137614679000000137e+02 4.279999999999999916e-01
5.440000000000000000e+02 3.154128440000000069e+02 4.229999999999999871e-01
5.440000000000000000e+02 3.170642202000000225e+02 4.299999999999999933e-01
5.440000000000000000e+02 3.187155963000000156e+02 4.329999999999999960e-01
5.440000000000000000e+02 3.203669724999999744e+02 4.339999999999999969e-01
5.440000000000000000e+02 3.220183486000000244e+02 4.329999999999999960e-01
5.440000000000000000e+02 3.236697247999999831e+02 4.359999999999999987e-01
5.440000000000000000e+02 3.253211008999999763e+02 4.380000000000000004e-01
5.440000000000000000e+02 3.269724770999999919e+02 4.369999999999999996e-01
5.440000000000000000e+02 3.286238531999999850e+02 4.369999999999999996e-01
5.440000000000000000e+02 3.302752294000000006e+02 4.339999999999999969e-01
5.440000000000000000e+02 3.319266054999999938e+02 4.329999999999999960e-01
5.440000000000000000e+02 3.335779817000000094e+02 4.400000000000000022e-01
5.440000000000000000e+02 3.352293578000000025e+02 4.390000000000000013e-01
5.440000000000000000e+02 3.368807338999999956e+02 4.400000000000000022e-01
5.440000000000000000e+02 3.385321101000000112e+02 4.400000000000000022e-01
5.440000000000000000e+02 3.401834862000000044e+02 4.410000000000000031e-01
5.440000000000000000e+02 3.418348624000000200e+02 4.420000000000000040e-01
5.440000000000000000e+02 3.434862385000000131e+02 4.400000000000000022e-01
5.440000000000000000e+02 3.451376146999999719e+02 4.400000000000000022e-01
5.440000000000000000e+02 3.467889908000000219e+02 4.410000000000000031e-01
5.440000000000000000e+02 3.484403669999999806e+02 3.950000000000000178e-01
5.440000000000000000e+02 3.500917430999999738e+02 3.449999999999999734e-01
5.440000000000000000e+02 3.517431192999999894e+02 3.760000000000000009e-01
5.440000000000000000e+02 3.533944953999999825e+02 4.289999999999999925e-01
5.440000000000000000e+02 3.550458715999999981e+02 3.240000000000000102e-01
5.440000000000000000e+02 3.566972476999999913e+02 2.670000000000000151e-01
5.440000000000000000e+02 3.583486239000000069e+02 2.690000000000000169e-01
5.450000000000000000e+02 0.000000000000000000e+00 2.640000000000000124e-01
5.450000000000000000e+02 1.651376146999999905e+00 2.770000000000000240e-01
5.450000000000000000e+02 3.302752293999999811e+00 3.579999999999999849e-01
5.450000000000000000e+02 4.954128439999999856e+00 4.480000000000000093e-01
5.450000000000000000e+02 6.605504587000000427e+00 4.480000000000000093e-01
5.450000000000000000e+02 8.256880733999999222e+00 4.460000000000000075e-01
5.450000000000000000e+02 9.908256880999999794e+00 4.460000000000000075e-01
5.450000000000000000e+02 1.155963303000000053e+01 4.460000000000000075e-01
5.450000000000000000e+02 1.321100917000000052e+01 4.450000000000000067e-01
5.450000000000000000e+02 1.486238531999999957e+01 4.460000000000000075e-01
5.450000000000000000e+02 1.651376146999999861e+01 3.750000000000000000e-01
5.450000000000000000e+02 1.816513760999999860e+01 3.529999999999999805e-01
5.450000000000000000e+02 1.981651375999999942e+01 3.579999999999999849e-01
5.450000000000000000e+02 2.146788991000000024e+01 3.300000000000000155e-01
5.450000000000000000e+02 2.311926606000000106e+01 4.460000000000000075e-01
5.450000000000000000e+02 2.477064220000000105e+01 4.460000000000000075e-01
5.450000000000000000e+02 2.642201834999999832e+01 4.199999999999999845e-01
5.450000000000000000e+02 2.807339449999999914e+01 4.400000000000000022e-01
5.450000000000000000e+02 2.972477063999999913e+01 4.440000000000000058e-01
5.450000000000000000e+02 3.137614678999999995e+01 4.440000000000000058e-01
5.450000000000000000e+02 3.302752293999999722e+01 3.950000000000000178e-01
5.450000000000000000e+02 3.467889908000000077e+01 4.189999999999999836e-01
5.450000000000000000e+02 3.633027522999999803e+01 4.050000000000000266e-01
5.450000000000000000e+02 3.798165138000000240e+01 4.530000000000000138e-01
5.450000000000000000e+02 3.963302751999999884e+01 4.420000000000000040e-01
5.450000000000000000e+02 4.128440367000000322e+01 4.430000000000000049e-01
5.450000000000000000e+02 4.293577982000000048e+01 4.410000000000000031e-01
5.450000000000000000e+02 4.458715595999999692e+01 4.420000000000000040e-01
5.450000000000000000e+02 4.623853211000000130e+01 4.410000000000000031e-01
5.450000000000000000e+02 4.788990825999999856e+01 4.420000000000000040e-01
5.450000000000000000e+02 4.954128440000000211e+01 4.410000000000000031e-01
5.450000000000000000e+02 5.119266054999999938e+01 4.420000000000000040e-01
5.450000000000000000e+02 5.284403669999999664e+01 4.420000000000000040e-01
5.450000000000000000e+02 5.449541284000000019e+01 4.410000000000000031e-01
5.450000000000000000e+02 5.614678898999999745e+01 4.430000000000000049e-01
5.450000000000000000e+02 5.779816514000000183e+01 4.430000000000000049e-01
5.450000000000000000e+02 5.944954127999999827e+01 4.410000000000000031e-01
5.450000000000000000e+02 6.110091743000000264e+01 4.400000000000000022e-01
5.450000000000000000e+02 6.275229357999999991e+01 4.359999999999999987e-01
5.450000000000000000e+02 6.440366971999999635e+01 4.380000000000000004e-01
5.450000000000000000e+02 6.605504587000000072e+01 4.410000000000000031e-01
5.450000000000000000e+02 6.770642202000000509e+01 4.430000000000000049e-01
5.450000000000000000e+02 6.935779816999999525e+01 4.420000000000000040e-01
5.450000000000000000e+02 7.100917431000000590e+01 4.440000000000000058e-01
5.450000000000000000e+02 7.266055045999999606e+01 4.420000000000000040e-01
5.450000000000000000e+02 7.431192661000000044e+01 4.440000000000000058e-01
5.450000000000000000e+02 7.596330274999999688e+01 4.440000000000000058e-01
5.450000000000000000e+02 7.761467890000000125e+01 4.440000000000000058e-01
5.450000000000000000e+02 7.926605505000000562e+01 4.440000000000000058e-01
5.450000000000000000e+02 8.091743119000000206e+01 4.430000000000000049e-01
5.450000000000000000e+02 8.256880734000000643e+01 4.420000000000000040e-01
5.450000000000000000e+02 8.422018348999999660e+01 4.440000000000000058e-01
5.450000000000000000e+02 8.587155962999999304e+01 4.450000000000000067e-01
5.450000000000000000e+02 8.752293577999999741e+01 4.430000000000000049e-01
5.450000000000000000e+02 8.917431193000000178e+01 4.460000000000000075e-01
5.450000000000000000e+02 9.082568806999999822e+01 4.440000000000000058e-01
5.450000000000000000e+02 9.247706422000000259e+01 4.420000000000000040e-01
5.450000000000000000e+02 9.412844037000000696e+01 4.450000000000000067e-01
5.450000000000000000e+02 9.577981651000000340e+01 4.450000000000000067e-01
5.450000000000000000e+02 9.743119265999999357e+01 4.450000000000000067e-01
5.450000000000000000e+02 9.908256880999999794e+01 4.440000000000000058e-01
5.450000000000000000e+02 1.007339450000000056e+02 4.440000000000000058e-01
5.450000000000000000e+02 1.023853210999999988e+02 4.440000000000000058e-01
5.450000000000000000e+02 1.040366972000000061e+02 4.420000000000000040e-01
5.450000000000000000e+02 1.056880733999999933e+02 4.410000000000000031e-01
5.450000000000000000e+02 1.073394495000000006e+02 4.430000000000000049e-01
5.450000000000000000e+02 1.089908257000000020e+02 4.390000000000000013e-01
5.450000000000000000e+02 1.106422017999999952e+02 4.420000000000000040e-01
5.450000000000000000e+02 1.122935779999999966e+02 4.420000000000000040e-01
5.450000000000000000e+02 1.139449541000000039e+02 4.420000000000000040e-01
5.450000000000000000e+02 1.155963303000000053e+02 4.440000000000000058e-01
5.450000000000000000e+02 1.172477063999999984e+02 4.410000000000000031e-01
5.450000000000000000e+02 1.188990825999999998e+02 4.420000000000000040e-01
5.450000000000000000e+02 1.205504586999999930e+02 4.430000000000000049e-01
5.450000000000000000e+02 1.222018348999999944e+02 4.440000000000000058e-01
5.450000000000000000e+02 1.238532110000000017e+02 4.440000000000000058e-01
5.450000000000000000e+02 1.255045872000000031e+02 4.440000000000000058e-01
5.450000000000000000e+02 1.271559632999999963e+02 4.440000000000000058e-01
5.450000000000000000e+02 1.288073393999999894e+02 4.440000000000000058e-01
5.450000000000000000e+02 1.304587156000000050e+02 4.460000000000000075e-01
5.450000000000000000e+02 1.321100916999999981e+02 4.480000000000000093e-01
5.450000000000000000e+02 1.337614679000000137e+02 4.460000000000000075e-01
5.450000000000000000e+02 1.354128440000000069e+02 4.480000000000000093e-01
5.450000000000000000e+02 1.370642201999999941e+02 4.460000000000000075e-01
5.450000000000000000e+02 1.387155962999999872e+02 5.000000000000000000e-01
5.450000000000000000e+02 1.403669725000000028e+02 4.570000000000000173e-01
5.450000000000000000e+02 1.420183485999999959e+02 4.470000000000000084e-01
5.450000000000000000e+02 1.436697248000000116e+02 4.369999999999999996e-01
5.450000000000000000e+02 1.453211009000000047e+02 4.380000000000000004e-01
5.450000000000000000e+02 1.469724770999999919e+02 4.380000000000000004e-01
5.450000000000000000e+02 1.486238532000000134e+02 4.380000000000000004e-01
5.450000000000000000e+02 1.502752294000000006e+02 4.400000000000000022e-01
5.450000000000000000e+02 1.519266054999999938e+02 4.400000000000000022e-01
5.450000000000000000e+02 1.535779817000000094e+02 4.400000000000000022e-01
5.450000000000000000e+02 1.552293578000000025e+02 4.400000000000000022e-01
5.450000000000000000e+02 1.568807338999999956e+02 4.380000000000000004e-01
5.450000000000000000e+02 1.585321101000000112e+02 4.400000000000000022e-01
5.450000000000000000e+02 1.601834862000000044e+02 4.390000000000000013e-01
5.450000000000000000e+02 1.618348623999999916e+02 4.410000000000000031e-01
5.450000000000000000e+02 1.634862385000000131e+02 4.390000000000000013e-01
5.450000000000000000e+02 1.651376147000000003e+02 4.390000000000000013e-01
5.450000000000000000e+02 1.667889907999999934e+02 4.139999999999999791e-01
5.450000000000000000e+02 1.684403670000000091e+02 4.149999999999999800e-01
5.450000000000000000e+02 1.700917431000000022e+02 4.369999999999999996e-01
5.450000000000000000e+02 1.717431192999999894e+02 4.369999999999999996e-01
5.450000000000000000e+02 1.733944954000000109e+02 4.400000000000000022e-01
5.450000000000000000e+02 1.750458715999999981e+02 4.400000000000000022e-01
5.450000000000000000e+02 1.766972476999999913e+02 4.390000000000000013e-01
5.450000000000000000e+02 1.783486239000000069e+02 4.359999999999999987e-01
5.450000000000000000e+02 1.800000000000000000e+02 4.319999999999999951e-01
5.450000000000000000e+02 1.816513760999999931e+02 4.380000000000000004e-01
5.450000000000000000e+02 1.833027523000000087e+02 4.359999999999999987e-01
5.450000000000000000e+02 1.849541284000000019e+02 4.359999999999999987e-01
5.450000000000000000e+02 1.866055045999999891e+02 4.329999999999999960e-01
5.450000000000000000e+02 1.882568807000000106e+02 4.339999999999999969e-01
5.450000000000000000e+02 1.899082568999999978e+02 4.339999999999999969e-01
5.450000000000000000e+02 1.915596329999999909e+02 4.349999999999999978e-01
5.450000000000000000e+02 1.932110092000000066e+02 4.339999999999999969e-01
5.450000000000000000e+02 1.948623852999999997e+02 4.349999999999999978e-01
5.450000000000000000e+02 1.965137614999999869e+02 4.339999999999999969e-01
5.450000000000000000e+02 1.981651376000000084e+02 4.339999999999999969e-01
5.450000000000000000e+02 1.998165137999999956e+02 4.329999999999999960e-01
5.450000000000000000e+02 2.014678898999999888e+02 4.369999999999999996e-01
5.450000000000000000e+02 2.031192661000000044e+02 4.189999999999999836e-01
5.450000000000000000e+02 2.047706421999999975e+02 4.249999999999999889e-01
5.450000000000000000e+02 2.064220182999999906e+02 4.259999999999999898e-01
5.450000000000000000e+02 2.080733945000000062e+02 4.329999999999999960e-01
5.450000000000000000e+02 2.097247705999999994e+02 4.349999999999999978e-01
5.450000000000000000e+02 2.113761467999999866e+02 4.369999999999999996e-01
5.450000000000000000e+02 2.130275229000000081e+02 4.420000000000000040e-01
5.450000000000000000e+02 2.146788990999999953e+02 5.000000000000000000e-01
5.450000000000000000e+02 2.163302751999999884e+02 4.440000000000000058e-01
5.450000000000000000e+02 2.179816514000000041e+02 4.430000000000000049e-01
5.450000000000000000e+02 2.196330274999999972e+02 4.430000000000000049e-01
5.450000000000000000e+02 2.212844037000000128e+02 4.410000000000000031e-01
5.450000000000000000e+02 2.229357798000000059e+02 4.430000000000000049e-01
5.450000000000000000e+02 2.245871559999999931e+02 4.400000000000000022e-01
5.450000000000000000e+02 2.262385320999999863e+02 4.390000000000000013e-01
5.450000000000000000e+02 2.278899083000000019e+02 4.359999999999999987e-01
5.450000000000000000e+02 2.295412843999999950e+02 4.229999999999999871e-01
5.450000000000000000e+02 2.311926606000000106e+02 4.119999999999999774e-01
5.450000000000000000e+02 2.328440367000000037e+02 4.179999999999999827e-01
5.450000000000000000e+02 2.344954127999999969e+02 4.199999999999999845e-01
5.450000000000000000e+02 2.361467890000000125e+02 4.289999999999999925e-01
5.450000000000000000e+02 2.377981651000000056e+02 4.349999999999999978e-01
5.450000000000000000e+02 2.394495412999999928e+02 4.359999999999999987e-01
5.450000000000000000e+02 2.411009173999999859e+02 4.269999999999999907e-01
5.450000000000000000e+02 2.427522936000000016e+02 4.249999999999999889e-01
5.450000000000000000e+02 2.444036696999999947e+02 4.359999999999999987e-01
5.450000000000000000e+02 2.460550459000000103e+02 4.339999999999999969e-01
5.450000000000000000e+02 2.477064220000000034e+02 4.359999999999999987e-01
5.450000000000000000e+02 2.493577981999999906e+02 4.339999999999999969e-01
5.450000000000000000e+02 2.510091743000000122e+02 4.359999999999999987e-01
5.450000000000000000e+02 2.526605504999999994e+02 4.369999999999999996e-01
5.450000000000000000e+02 2.543119265999999925e+02 4.359999999999999987e-01
5.450000000000000000e+02 2.559633028000000081e+02 4.369999999999999996e-01
5.450000000000000000e+02 2.576146789000000012e+02 4.359999999999999987e-01
5.450000000000000000e+02 2.592660549999999944e+02 4.279999999999999916e-01
5.450000000000000000e+02 2.609174312000000100e+02 4.289999999999999925e-01
5.450000000000000000e+02 2.625688073000000031e+02 4.339999999999999969e-01
5.450000000000000000e+02 2.642201835000000187e+02 4.359999999999999987e-01
5.450000000000000000e+02 2.658715596000000119e+02 4.349999999999999978e-01
5.450000000000000000e+02 2.675229358000000275e+02 4.299999999999999933e-01
5.450000000000000000e+02 2.691743119000000206e+02 4.249999999999999889e-01
5.450000000000000000e+02 2.708256880999999794e+02 4.289999999999999925e-01
5.450000000000000000e+02 2.724770641999999725e+02 4.329999999999999960e-01
5.450000000000000000e+02 2.741284403999999881e+02 4.219999999999999862e-01
5.450000000000000000e+02 2.757798164999999813e+02 4.199999999999999845e-01
5.450000000000000000e+02 2.774311926999999969e+02 4.199999999999999845e-01
5.450000000000000000e+02 2.790825687999999900e+02 4.089999999999999747e-01
5.450000000000000000e+02 2.807339450000000056e+02 4.079999999999999738e-01
5.450000000000000000e+02 2.823853210999999988e+02 4.289999999999999925e-01
5.450000000000000000e+02 2.840366971999999919e+02 4.359999999999999987e-01
5.450000000000000000e+02 2.856880734000000075e+02 4.349999999999999978e-01
5.450000000000000000e+02 2.873394495000000006e+02 4.319999999999999951e-01
5.450000000000000000e+02 2.889908257000000162e+02 4.000000000000000222e-01
5.450000000000000000e+02 2.906422018000000094e+02 4.269999999999999907e-01
5.450000000000000000e+02 2.922935780000000250e+02 4.249999999999999889e-01
5.450000000000000000e+02 2.939449541000000181e+02 4.289999999999999925e-01
5.450000000000000000e+02 2.955963302999999769e+02 4.229999999999999871e-01
5.450000000000000000e+02 2.972477064000000269e+02 4.259999999999999898e-01
5.450000000000000000e+02 2.988990825999999856e+02 4.380000000000000004e-01
5.450000000000000000e+02 3.005504586999999788e+02 4.359999999999999987e-01
5.450000000000000000e+02 3.022018348999999944e+02 4.359999999999999987e-01
5.450000000000000000e+02 3.038532109999999875e+02 4.359999999999999987e-01
5.450000000000000000e+02 3.055045872000000031e+02 4.319999999999999951e-01
5.450000000000000000e+02 3.071559632999999963e+02 4.279999999999999916e-01
5.450000000000000000e+02 3.088073393999999894e+02 4.189999999999999836e-01
5.450000000000000000e+02 3.104587156000000050e+02 4.189999999999999836e-01
5.450000000000000000e+02 3.121100916999999981e+02 4.349999999999999978e-01
5.450000000000000000e+02 3.137614679000000137e+02 4.309999999999999942e-01
5.450000000000000000e+02 3.154128440000000069e+02 4.199999999999999845e-01
5.450000000000000000e+02 3.170642202000000225e+02 4.339999999999999969e-01
5.450000000000000000e+02 3.187155963000000156e+02 4.359999999999999987e-01
5.450000000000000000e+02 3.203669724999999744e+02 4.380000000000000004e-01
5.450000000000000000e+02 3.220183486000000244e+02 4.359999999999999987e-01
5.450000000000000000e+02 3.236697247999999831e+02 4.390000000000000013e-01
5.450000000000000000e+02 3.253211008999999763e+02 4.400000000000000022e-01
5.450000000000000000e+02 3.269724770999999919e+02 4.400000000000000022e-01
5.450000000000000000e+02 3.286238531999999850e+02 4.359999999999999987e-01
5.450000000000000000e+02 3.302752294000000006e+02 4.390000000000000013e-01
5.450000000000000000e+02 3.319266054999999938e+02 4.390000000000000013e-01
5.450000000000000000e+02 3.335779817000000094e+02 4.410000000000000031e-01
5.450000000000000000e+02 3.352293578000000025e+02 4.420000000000000040e-01
5.450000000000000000e+02 3.368807338999999956e+02 4.420000000000000040e-01
5.450000000000000000e+02 3.385321101000000112e+02 4.440000000000000058e-01
5.450000000000000000e+02 3.401834862000000044e+02 4.420000000000000040e-01
5.450000000000000000e+02 3.418348624000000200e+02 4.420000000000000040e-01
5.450000000000000000e+02 3.434862385000000131e+02 4.420000000000000040e-01
5.450000000000000000e+02 3.451376146999999719e+02 4.430000000000000049e-01
5.450000000000000000e+02 3.467889908000000219e+02 4.440000000000000058e-01
5.450000000000000000e+02 3.484403669999999806e+02 4.460000000000000075e-01
5.450000000000000000e+02 3.500917430999999738e+02 3.970000000000000195e-01
5.450000000000000000e+02 3.517431192999999894e+02 4.460000000000000075e-01
5.450000000000000000e+02 3.533944953999999825e+02 4.450000000000000067e-01
5.450000000000000000e+02 3.550458715999999981e+02 3.860000000000000098e-01
5.450000000000000000e+02 3.566972476999999913e+02 3.230000000000000093e-01
5.450000000000000000e+02 3.583486239000000069e+02 2.550000000000000044e-01
5.460000000000000000e+02 0.000000000000000000e+00 3.810000000000000053e-01
5.460000000000000000e+02 1.651376146999999905e+00 4.490000000000000102e-01
5.460000000000000000e+02 3.302752293999999811e+00 4.490000000000000102e-01
5.460000000000000000e+02 4.954128439999999856e+00 4.490000000000000102e-01
5.460000000000000000e+02 6.605504587000000427e+00 4.500000000000000111e-01
5.460000000000000000e+02 8.256880733999999222e+00 4.480000000000000093e-01
5.460000000000000000e+02 9.908256880999999794e+00 4.480000000000000093e-01
5.460000000000000000e+02 1.155963303000000053e+01 4.480000000000000093e-01
5.460000000000000000e+02 1.321100917000000052e+01 4.490000000000000102e-01
5.460000000000000000e+02 1.486238531999999957e+01 4.470000000000000084e-01
5.460000000000000000e+02 1.651376146999999861e+01 4.490000000000000102e-01
5.460000000000000000e+02 1.816513760999999860e+01 4.099999999999999756e-01
5.460000000000000000e+02 1.981651375999999942e+01 3.689999999999999947e-01
5.460000000000000000e+02 2.146788991000000024e+01 4.470000000000000084e-01
5.460000000000000000e+02 2.311926606000000106e+01 4.470000000000000084e-01
5.460000000000000000e+02 2.477064220000000105e+01 4.470000000000000084e-01
5.460000000000000000e+02 2.642201834999999832e+01 4.430000000000000049e-01
5.460000000000000000e+02 2.807339449999999914e+01 4.430000000000000049e-01
5.460000000000000000e+02 2.972477063999999913e+01 4.420000000000000040e-01
5.460000000000000000e+02 3.137614678999999995e+01 4.450000000000000067e-01
5.460000000000000000e+02 3.302752293999999722e+01 4.460000000000000075e-01
5.460000000000000000e+02 3.467889908000000077e+01 4.460000000000000075e-01
5.460000000000000000e+02 3.633027522999999803e+01 4.000000000000000222e-01
5.460000000000000000e+02 3.798165138000000240e+01 4.430000000000000049e-01
5.460000000000000000e+02 3.963302751999999884e+01 4.440000000000000058e-01
5.460000000000000000e+02 4.128440367000000322e+01 4.430000000000000049e-01
5.460000000000000000e+02 4.293577982000000048e+01 4.430000000000000049e-01
5.460000000000000000e+02 4.458715595999999692e+01 4.430000000000000049e-01
5.460000000000000000e+02 4.623853211000000130e+01 4.430000000000000049e-01
5.460000000000000000e+02 4.788990825999999856e+01 4.430000000000000049e-01
5.460000000000000000e+02 4.954128440000000211e+01 4.430000000000000049e-01
5.460000000000000000e+02 5.119266054999999938e+01 4.440000000000000058e-01
5.460000000000000000e+02 5.284403669999999664e+01 4.440000000000000058e-01
5.460000000000000000e+02 5.449541284000000019e+01 4.430000000000000049e-01
5.460000000000000000e+02 5.614678898999999745e+01 4.440000000000000058e-01
5.460000000000000000e+02 5.779816514000000183e+01 4.420000000000000040e-01
5.460000000000000000e+02 5.944954127999999827e+01 4.430000000000000049e-01
5.460000000000000000e+02 6.110091743000000264e+01 4.410000000000000031e-01
5.460000000000000000e+02 6.275229357999999991e+01 4.390000000000000013e-01
5.460000000000000000e+02 6.440366971999999635e+01 4.420000000000000040e-01
5.460000000000000000e+02 6.605504587000000072e+01 4.420000000000000040e-01
5.460000000000000000e+02 6.770642202000000509e+01 4.460000000000000075e-01
5.460000000000000000e+02 6.935779816999999525e+01 4.460000000000000075e-01
5.460000000000000000e+02 7.100917431000000590e+01 4.450000000000000067e-01
5.460000000000000000e+02 7.266055045999999606e+01 4.450000000000000067e-01
5.460000000000000000e+02 7.431192661000000044e+01 4.450000000000000067e-01
5.460000000000000000e+02 7.596330274999999688e+01 4.239999999999999880e-01
5.460000000000000000e+02 7.761467890000000125e+01 4.430000000000000049e-01
5.460000000000000000e+02 7.926605505000000562e+01 4.440000000000000058e-01
5.460000000000000000e+02 8.091743119000000206e+01 4.420000000000000040e-01
5.460000000000000000e+02 8.256880734000000643e+01 4.460000000000000075e-01
5.460000000000000000e+02 8.422018348999999660e+01 4.440000000000000058e-01
5.460000000000000000e+02 8.587155962999999304e+01 4.450000000000000067e-01
5.460000000000000000e+02 8.752293577999999741e+01 4.440000000000000058e-01
5.460000000000000000e+02 8.917431193000000178e+01 4.460000000000000075e-01
5.460000000000000000e+02 9.082568806999999822e+01 4.450000000000000067e-01
5.460000000000000000e+02 9.247706422000000259e+01 4.440000000000000058e-01
5.460000000000000000e+02 9.412844037000000696e+01 4.450000000000000067e-01
5.460000000000000000e+02 9.577981651000000340e+01 4.460000000000000075e-01
5.460000000000000000e+02 9.743119265999999357e+01 4.470000000000000084e-01
5.460000000000000000e+02 9.908256880999999794e+01 4.420000000000000040e-01
5.460000000000000000e+02 1.007339450000000056e+02 4.460000000000000075e-01
5.460000000000000000e+02 1.023853210999999988e+02 4.460000000000000075e-01
5.460000000000000000e+02 1.040366972000000061e+02 4.229999999999999871e-01
5.460000000000000000e+02 1.056880733999999933e+02 4.420000000000000040e-01
5.460000000000000000e+02 1.073394495000000006e+02 4.440000000000000058e-01
5.460000000000000000e+02 1.089908257000000020e+02 4.430000000000000049e-01
5.460000000000000000e+02 1.106422017999999952e+02 4.460000000000000075e-01
5.460000000000000000e+02 1.122935779999999966e+02 4.440000000000000058e-01
5.460000000000000000e+02 1.139449541000000039e+02 4.440000000000000058e-01
5.460000000000000000e+02 1.155963303000000053e+02 4.440000000000000058e-01
5.460000000000000000e+02 1.172477063999999984e+02 4.430000000000000049e-01
5.460000000000000000e+02 1.188990825999999998e+02 4.450000000000000067e-01
5.460000000000000000e+02 1.205504586999999930e+02 4.470000000000000084e-01
5.460000000000000000e+02 1.222018348999999944e+02 4.460000000000000075e-01
5.460000000000000000e+02 1.238532110000000017e+02 4.460000000000000075e-01
5.460000000000000000e+02 1.255045872000000031e+02 4.450000000000000067e-01
5.460000000000000000e+02 1.271559632999999963e+02 4.440000000000000058e-01
5.460000000000000000e+02 1.288073393999999894e+02 4.460000000000000075e-01
5.460000000000000000e+02 1.304587156000000050e+02 4.490000000000000102e-01
5.460000000000000000e+02 1.321100916999999981e+02 4.480000000000000093e-01
5.460000000000000000e+02 1.337614679000000137e+02 4.480000000000000093e-01
5.460000000000000000e+02 1.354128440000000069e+02 4.480000000000000093e-01
5.460000000000000000e+02 1.370642201999999941e+02 4.430000000000000049e-01
5.460000000000000000e+02 1.387155962999999872e+02 5.000000000000000000e-01
5.460000000000000000e+02 1.403669725000000028e+02 4.610000000000000209e-01
5.460000000000000000e+02 1.420183485999999959e+02 4.470000000000000084e-01
5.460000000000000000e+02 1.436697248000000116e+02 4.349999999999999978e-01
5.460000000000000000e+02 1.453211009000000047e+02 4.369999999999999996e-01
5.460000000000000000e+02 1.469724770999999919e+02 4.390000000000000013e-01
5.460000000000000000e+02 1.486238532000000134e+02 4.390000000000000013e-01
5.460000000000000000e+02 1.502752294000000006e+02 4.400000000000000022e-01
5.460000000000000000e+02 1.519266054999999938e+02 4.400000000000000022e-01
5.460000000000000000e+02 1.535779817000000094e+02 4.390000000000000013e-01
5.460000000000000000e+02 1.552293578000000025e+02 4.390000000000000013e-01
5.460000000000000000e+02 1.568807338999999956e+02 4.400000000000000022e-01
5.460000000000000000e+02 1.585321101000000112e+02 4.400000000000000022e-01
5.460000000000000000e+02 1.601834862000000044e+02 4.380000000000000004e-01
5.460000000000000000e+02 1.618348623999999916e+02 4.390000000000000013e-01
5.460000000000000000e+02 1.634862385000000131e+02 4.369999999999999996e-01
5.460000000000000000e+02 1.651376147000000003e+02 4.400000000000000022e-01
5.460000000000000000e+02 1.667889907999999934e+02 4.380000000000000004e-01
5.460000000000000000e+02 1.684403670000000091e+02 4.380000000000000004e-01
5.460000000000000000e+02 1.700917431000000022e+02 4.369999999999999996e-01
5.460000000000000000e+02 1.717431192999999894e+02 4.369999999999999996e-01
5.460000000000000000e+02 1.733944954000000109e+02 4.390000000000000013e-01
5.460000000000000000e+02 1.750458715999999981e+02 4.390000000000000013e-01
5.460000000000000000e+02 1.766972476999999913e+02 4.380000000000000004e-01
5.460000000000000000e+02 1.783486239000000069e+02 4.369999999999999996e-01
5.460000000000000000e+02 1.800000000000000000e+02 4.369999999999999996e-01
5.460000000000000000e+02 1.816513760999999931e+02 4.380000000000000004e-01
5.460000000000000000e+02 1.833027523000000087e+02 4.369999999999999996e-01
5.460000000000000000e+02 1.849541284000000019e+02 4.339999999999999969e-01
5.460000000000000000e+02 1.866055045999999891e+02 4.329999999999999960e-01
5.460000000000000000e+02 1.882568807000000106e+02 4.339999999999999969e-01
5.460000000000000000e+02 1.899082568999999978e+02 4.339999999999999969e-01
5.460000000000000000e+02 1.915596329999999909e+02 4.349999999999999978e-01
5.460000000000000000e+02 1.932110092000000066e+02 4.339999999999999969e-01
5.460000000000000000e+02 1.948623852999999997e+02 4.339999999999999969e-01
5.460000000000000000e+02 1.965137614999999869e+02 4.339999999999999969e-01
5.460000000000000000e+02 1.981651376000000084e+02 4.339999999999999969e-01
5.460000000000000000e+02 1.998165137999999956e+02 4.339999999999999969e-01
5.460000000000000000e+02 2.014678898999999888e+02 4.339999999999999969e-01
5.460000000000000000e+02 2.031192661000000044e+02 4.329999999999999960e-01
5.460000000000000000e+02 2.047706421999999975e+02 4.279999999999999916e-01
5.460000000000000000e+02 2.064220182999999906e+02 4.329999999999999960e-01
5.460000000000000000e+02 2.080733945000000062e+02 4.339999999999999969e-01
5.460000000000000000e+02 2.097247705999999994e+02 4.359999999999999987e-01
5.460000000000000000e+02 2.113761467999999866e+02 4.410000000000000031e-01
5.460000000000000000e+02 2.130275229000000081e+02 4.420000000000000040e-01
5.460000000000000000e+02 2.146788990999999953e+02 5.000000000000000000e-01
5.460000000000000000e+02 2.163302751999999884e+02 4.400000000000000022e-01
5.460000000000000000e+02 2.179816514000000041e+02 4.430000000000000049e-01
5.460000000000000000e+02 2.196330274999999972e+02 4.440000000000000058e-01
5.460000000000000000e+02 2.212844037000000128e+02 4.430000000000000049e-01
5.460000000000000000e+02 2.229357798000000059e+02 3.930000000000000160e-01
5.460000000000000000e+02 2.245871559999999931e+02 4.420000000000000040e-01
5.460000000000000000e+02 2.262385320999999863e+02 4.400000000000000022e-01
5.460000000000000000e+02 2.278899083000000019e+02 4.380000000000000004e-01
5.460000000000000000e+02 2.295412843999999950e+02 4.380000000000000004e-01
5.460000000000000000e+02 2.311926606000000106e+02 4.179999999999999827e-01
5.460000000000000000e+02 2.328440367000000037e+02 4.209999999999999853e-01
5.460000000000000000e+02 2.344954127999999969e+02 4.239999999999999880e-01
5.460000000000000000e+02 2.361467890000000125e+02 4.369999999999999996e-01
5.460000000000000000e+02 2.377981651000000056e+02 4.359999999999999987e-01
5.460000000000000000e+02 2.394495412999999928e+02 4.349999999999999978e-01
5.460000000000000000e+02 2.411009173999999859e+02 4.349999999999999978e-01
5.460000000000000000e+02 2.427522936000000016e+02 4.259999999999999898e-01
5.460000000000000000e+02 2.444036696999999947e+02 4.390000000000000013e-01
5.460000000000000000e+02 2.460550459000000103e+02 4.359999999999999987e-01
5.460000000000000000e+02 2.477064220000000034e+02 4.349999999999999978e-01
5.460000000000000000e+02 2.493577981999999906e+02 4.329999999999999960e-01
5.460000000000000000e+02 2.510091743000000122e+02 4.380000000000000004e-01
5.460000000000000000e+02 2.526605504999999994e+02 4.390000000000000013e-01
5.460000000000000000e+02 2.543119265999999925e+02 4.380000000000000004e-01
5.460000000000000000e+02 2.559633028000000081e+02 4.400000000000000022e-01
5.460000000000000000e+02 2.576146789000000012e+02 4.349999999999999978e-01
5.460000000000000000e+02 2.592660549999999944e+02 4.189999999999999836e-01
5.460000000000000000e+02 2.609174312000000100e+02 4.279999999999999916e-01
5.460000000000000000e+02 2.625688073000000031e+02 4.289999999999999925e-01
5.460000000000000000e+02 2.642201835000000187e+02 4.359999999999999987e-01
5.460000000000000000e+02 2.658715596000000119e+02 4.359999999999999987e-01
5.460000000000000000e+02 2.675229358000000275e+02 4.349999999999999978e-01
5.460000000000000000e+02 2.691743119000000206e+02 4.339999999999999969e-01
5.460000000000000000e+02 2.708256880999999794e+02 4.369999999999999996e-01
5.460000000000000000e+02 2.724770641999999725e+02 4.359999999999999987e-01
5.460000000000000000e+02 2.741284403999999881e+02 4.339999999999999969e-01
5.460000000000000000e+02 2.757798164999999813e+02 4.259999999999999898e-01
5.460000000000000000e+02 2.774311926999999969e+02 4.219999999999999862e-01
5.460000000000000000e+02 2.790825687999999900e+02 4.149999999999999800e-01
5.460000000000000000e+02 2.807339450000000056e+02 4.149999999999999800e-01
5.460000000000000000e+02 2.823853210999999988e+02 4.349999999999999978e-01
5.460000000000000000e+02 2.840366971999999919e+02 4.369999999999999996e-01
5.460000000000000000e+02 2.856880734000000075e+02 4.259999999999999898e-01
5.460000000000000000e+02 2.873394495000000006e+02 4.050000000000000266e-01
5.460000000000000000e+02 2.889908257000000162e+02 4.169999999999999818e-01
5.460000000000000000e+02 2.906422018000000094e+02 4.359999999999999987e-01
5.460000000000000000e+02 2.922935780000000250e+02 4.289999999999999925e-01
5.460000000000000000e+02 2.939449541000000181e+02 4.600000000000000200e-01
5.460000000000000000e+02 2.955963302999999769e+02 4.239999999999999880e-01
5.460000000000000000e+02 2.972477064000000269e+02 4.759999999999999787e-01
5.460000000000000000e+02 2.988990825999999856e+02 4.390000000000000013e-01
5.460000000000000000e+02 3.005504586999999788e+02 4.349999999999999978e-01
5.460000000000000000e+02 3.022018348999999944e+02 4.380000000000000004e-01
5.460000000000000000e+02 3.038532109999999875e+02 4.369999999999999996e-01
5.460000000000000000e+02 3.055045872000000031e+02 4.380000000000000004e-01
5.460000000000000000e+02 3.071559632999999963e+02 4.390000000000000013e-01
5.460000000000000000e+02 3.088073393999999894e+02 4.259999999999999898e-01
5.460000000000000000e+02 3.104587156000000050e+02 4.400000000000000022e-01
5.460000000000000000e+02 3.121100916999999981e+02 4.400000000000000022e-01
5.460000000000000000e+02 3.137614679000000137e+02 4.380000000000000004e-01
5.460000000000000000e+02 3.154128440000000069e+02 4.299999999999999933e-01
5.460000000000000000e+02 3.170642202000000225e+02 4.400000000000000022e-01
5.460000000000000000e+02 3.187155963000000156e+02 4.380000000000000004e-01
5.460000000000000000e+02 3.203669724999999744e+02 4.390000000000000013e-01
5.460000000000000000e+02 3.220183486000000244e+02 4.400000000000000022e-01
5.460000000000000000e+02 3.236697247999999831e+02 4.420000000000000040e-01
5.460000000000000000e+02 3.253211008999999763e+02 4.440000000000000058e-01
5.460000000000000000e+02 3.269724770999999919e+02 4.410000000000000031e-01
5.460000000000000000e+02 3.286238531999999850e+02 4.410000000000000031e-01
5.460000000000000000e+02 3.302752294000000006e+02 4.430000000000000049e-01
5.460000000000000000e+02 3.319266054999999938e+02 4.209999999999999853e-01
5.460000000000000000e+02 3.335779817000000094e+02 4.430000000000000049e-01
5.460000000000000000e+02 3.352293578000000025e+02 4.430000000000000049e-01
5.460000000000000000e+02 3.368807338999999956e+02 4.450000000000000067e-01
5.460000000000000000e+02 3.385321101000000112e+02 4.460000000000000075e-01
5.460000000000000000e+02 3.401834862000000044e+02 4.450000000000000067e-01
5.460000000000000000e+02 3.418348624000000200e+02 4.450000000000000067e-01
5.460000000000000000e+02 3.434862385000000131e+02 4.460000000000000075e-01
5.460000000000000000e+02 3.451376146999999719e+02 4.470000000000000084e-01
5.460000000000000000e+02 3.467889908000000219e+02 4.470000000000000084e-01
5.460000000000000000e+02 3.484403669999999806e+02 4.490000000000000102e-01
5.460000000000000000e+02 3.500917430999999738e+02 4.460000000000000075e-01
5.460000000000000000e+02 3.517431192999999894e+02 4.470000000000000084e-01
5.460000000000000000e+02 3.533944953999999825e+02 4.470000000000000084e-01
5.460000000000000000e+02 3.550458715999999981e+02 4.470000000000000084e-01
5.460000000000000000e+02 3.566972476999999913e+02 4.229999999999999871e-01
5.460000000000000000e+02 3.583486239000000069e+02 4.040000000000000258e-01
5.470000000000000000e+02 0.000000000000000000e+00 4.500000000000000111e-01
5.470000000000000000e+02 1.651376146999999905e+00 4.500000000000000111e-01
5.470000000000000000e+02 3.302752293999999811e+00 4.520000000000000129e-01
5.470000000000000000e+02 4.954128439999999856e+00 4.510000000000000120e-01
